2.3804,0.984052,-0.280366
2.38271,0.967931,-0.279933
2.3803,0.949976,-0.278959
2.38238,0.933902,-0.278526
2.38435,0.917838,-0.278093
2.33051,0.895197,-0.364516
2.38157,0.900027,-0.27712
2.33133,0.879135,-0.363793
2.38146,0.883323,-0.27647
2.33668,0.864814,-0.363793
2.3859,0.868354,-0.276362
2.36874,0.960552,-0.303121
2.33636,0.848433,-0.362926
2.38275,0.85069,-0.275388
2.37367,0.945632,-0.303003
2.335,0.831757,-0.361915
2.38793,0.836053,-0.275388
2.37758,0.930326,-0.302768
2.34099,0.817741,-0.36206
2.40726,0.926589,-0.210436
2.39301,0.821386,-0.275388
2.3469,0.803682,-0.362204
2.31637,0.888959,-0.386399
2.40178,0.807955,-0.275821
2.37952,0.897575,-0.30159
2.34898,0.788322,-0.361771
2.32178,0.87473,-0.386399
2.41751,0.896632,-0.210355
2.37753,0.880199,-0.300648
2.35565,0.774512,-0.36206
2.32247,0.858754,-0.38563
2.41735,0.879736,-0.209867
2.38009,0.864577,-0.300295
2.34511,0.950143,-0.324451
2.35188,0.757314,-0.360759
2.32027,0.841791,-0.384399
2.29731,0.736647,-0.44374
2.26742,0.725621,-0.530099
2.41989,0.863882,-0.209623
2.38161,0.848624,-0.299824
2.34629,0.933902,-0.323815
2.35271,0.741679,-0.360181
2.30179,0.722537,-0.44374
2.42232,0.848029,-0.209379
2.38677,0.833994,-0.299824
2.34921,0.918404,-0.323433
2.35343,0.726062,-0.359603
2.32482,0.811301,-0.383476
2.30336,0.707534,-0.443197
2.42465,0.832179,-0.209135
2.34924,0.90184,-0.32267
2.3569,0.711322,-0.359459
2.32695,0.796062,-0.383014
2.30483,0.692538,-0.442654
2.42782,0.816651,-0.208973
2.35566,0.887758,-0.322798
2.36216,0.697127,-0.359603
2.32805,0.780512,-0.382398
2.31107,0.869896,-0.408934
2.30526,0.677274,-0.441931
2.43468,0.802363,-0.209135
2.38222,0.982654,-0.259892
2.40942,0.6969,-0.273008
2.35641,0.871567,-0.322162
2.3645,0.682072,-0.359315
2.33655,0.767446,-0.383014
2.31174,0.85399,-0.408117
2.30843,0.662845,-0.44175
2.43671,0.78649,-0.208891
2.36078,0.856753,-0.322034
2.36387,0.666208,-0.358592
2.33369,0.750675,-0.381783
2.30859,0.836763,-0.406647
2.31435,0.6492,-0.442112
2.22122,0.619062,-0.605321
2.36973,0.843582,-0.322543
2.3641,0.650641,-0.358014
2.33542,0.735451,-0.381321
2.31275,0.822252,-0.406484
2.3145,0.633948,-0.441388
2.24354,0.703289,-0.547095
2.23057,0.606945,-0.606845
2.46361,0.862272,-0.141863
2.44332,0.755645,-0.208647
2.38137,0.93139,-0.257885
2.36363,0.825103,-0.321017
2.33451,0.911656,-0.34616
2.36423,0.635096,-0.357436
2.338,0.720525,-0.381013
2.31123,0.805772,-0.40534
2.31644,0.619226,-0.441026
2.25247,0.690938,-0.548228
2.23519,0.593496,-0.607099
2.46885,0.84714,-0.141863
2.44219,0.738907,-0.208159
2.38239,0.914977,-0.257383
2.36864,0.810584,-0.321017
2.36808,0.620578,-0.357436
2.34049,0.705595,-0.380706
2.318,0.792214,-0.405667
2.3221,0.605497,-0.441388
2.23785,0.579527,-0.606845
2.47306,0.831657,-0.141809
2.44381,0.72306,-0.207916
2.36511,0.793197,-0.319872
2.33718,0.879799,-0.344929
2.36801,0.605056,-0.356858
2.34288,0.690662,-0.380398
2.31814,0.776409,-0.40485
2.32482,0.590996,-0.441207
2.26833,0.758539,-0.487617
2.46768,0.81303,-0.141212
2.46353,0.616354,-0.182298
2.44341,0.706667,-0.207509
2.40752,0.792276,-0.230616
2.37087,0.77898,-0.319999
2.34532,0.866471,-0.345339
2.37456,0.591232,-0.357292
2.34327,0.675179,-0.379782
2.32192,0.761863,-0.404686
2.31885,0.574355,-0.439398
2.29181,0.659009,-0.461894
2.46882,0.796646,-0.140995
2.44999,0.890077,-0.166921
2.47017,0.601935,-0.182513
2.44674,0.69139,-0.207428
2.41139,0.777183,-0.230525
2.38667,0.866556,-0.256079
2.39901,0.676365,-0.295584
2.37278,0.763506,-0.319618
2.34873,0.851389,-0.345066
2.37333,0.575485,-0.356569
2.34547,0.660253,-0.379475
2.32186,0.746093,-0.403869
2.29635,0.83222,-0.429624
2.3252,0.560808,-0.439941
2.29487,0.644669,-0.461703
2.61453,0.624481,0.101856
2.44318,0.870672,-0.16609
2.46412,0.584465,-0.181797
2.42276,0.764471,-0.231159
2.39195,0.851895,-0.256079
2.37174,0.747144,-0.318855
2.35111,0.835966,-0.344655
2.34185,0.643754,-0.378244
2.32733,0.732128,-0.404033
2.30049,0.817784,-0.429451
2.32286,0.545182,-0.438856
2.29499,0.629537,-0.460943
2.22156,0.606103,-0.628539
2.44189,0.85336,-0.165642
2.47154,0.570232,-0.182084
2.41884,0.746946,-0.230344
2.39431,0.836218,-0.255778
2.3687,0.73024,-0.317837
2.3562,0.821524,-0.344655
2.3725,0.544546,-0.355414
2.34862,0.630141,-0.378705
2.33178,0.717834,-0.404033
2.29988,0.801708,-0.428412
2.3252,0.5307,-0.438675
2.30071,0.615951,-0.461323
2.62784,0.593671,0.102083
2.57354,0.579609,0.00349917
2.51179,0.761145,-0.0468203
2.44896,0.839008,-0.16577
2.44652,0.642943,-0.206371
2.41384,0.72921,-0.229438
2.3994,0.821511,-0.255778
2.37978,0.717697,-0.318728
2.36026,0.806731,-0.344518
2.37097,0.528901,-0.354691
2.35053,0.615218,-0.378397
2.32858,0.701237,-0.402726
2.33033,0.516849,-0.439037
2.30539,0.602071,-0.461513
2.2774,0.684652,-0.484821
2.23561,0.670857,-0.567093
2.51737,0.746002,-0.0468382
2.48284,0.734402,-0.140723
2.44366,0.820471,-0.165067
2.44849,0.627425,-0.206208
2.41541,0.713539,-0.229166
2.40628,0.807406,-0.255978
2.37653,0.700837,-0.31771
2.35765,0.789716,-0.343424
2.37997,0.5156,-0.355558
2.34852,0.599318,-0.377474
2.33474,0.687493,-0.403053
2.30675,0.772487,-0.427892
2.32961,0.501712,-0.438313
2.30905,0.587914,-0.461513
2.27967,0.670112,-0.484421
2.23969,0.657127,-0.567093
2.5884,0.650698,0.0753893
2.53151,0.733324,-0.0470165
2.48059,0.717213,-0.140344
2.44296,0.803591,-0.164684
2.43779,0.608767,-0.204988
2.41783,0.698152,-0.228985
2.40646,0.791073,-0.255477
2.42693,0.512017,-0.269978
2.37793,0.685417,-0.317329
2.35963,0.774309,-0.343013
2.37534,0.499359,-0.354402
2.35119,0.584658,-0.37732
2.33701,0.672609,-0.402726
2.31144,0.758318,-0.427892
2.33746,0.488414,-0.439217
2.29927,0.570425,-0.458851
2.2828,0.655841,-0.484221
2.25685,0.740145,-0.50879
2.24368,0.643372,-0.567093
2.55283,0.623665,-0.0216491
2.45164,0.78981,-0.16494
2.4502,0.595918,-0.20572
2.41919,0.682492,-0.228713
2.41222,0.776597,-0.255577
2.431,0.497315,-0.270086
2.37636,0.669201,-0.316565
2.36433,0.759816,-0.343013
2.37739,0.484577,-0.354258
2.35762,0.570918,-0.377782
2.33445,0.656387,-0.401582
2.31324,0.743217,-0.427372
2.33752,0.473477,-0.438675
2.30273,0.556306,-0.458851
2.28489,0.641292,-0.483822
2.266,0.727779,-0.509838
2.25132,0.630641,-0.568037
2.25031,0.451887,-0.602528
2.54883,0.606139,-0.0215832
2.4815,0.684594,-0.139909
2.46406,0.777154,-0.165451
2.44702,0.579265,-0.205151
2.41504,0.761183,-0.255376
2.37851,0.654081,-0.316311
2.36612,0.744402,-0.342603
2.37838,0.469597,-0.353969
2.35627,0.555308,-0.377013
2.33748,0.64179,-0.401419
2.32057,0.729896,-0.427892
2.32977,0.457043,-0.436685
2.30801,0.542616,-0.459231
2.28123,0.625189,-0.482224
2.2611,0.710928,-0.507743
2.24015,0.612714,-0.56426
2.68422,0.521541,0.20373
2.57538,0.497548,0.00347928
2.55932,0.592066,-0.0216409
2.53878,0.68504,-0.0469095
2.47698,0.667018,-0.139421
2.4515,0.564463,-0.205232
2.42065,0.650944,-0.228078
2.41301,0.744298,-0.254674
2.40995,0.553392,-0.293229
2.38056,0.63896,-0.316057
2.36969,0.729578,-0.342466
2.38219,0.455181,-0.354113
2.36059,0.54106,-0.377166
2.34042,0.62718,-0.401255
2.32313,0.715064,-0.427546
2.3306,0.442372,-0.436323
2.31129,0.528444,-0.459231
2.2907,0.612698,-0.483422
2.26542,0.697041,-0.507743
2.24575,0.599458,-0.564732
2.24808,0.422808,-0.600497
2.57543,0.481185,0.0034753
2.55998,0.575692,-0.0216161
2.53714,0.667922,-0.0468025
2.47523,0.650285,-0.139095
2.46768,0.745127,-0.165067
2.48296,0.461577,-0.181296
2.45394,0.549193,-0.205151
2.42363,0.635826,-0.227988
2.41658,0.72919,-0.254574
2.38539,0.624593,-0.316184
2.37033,0.713882,-0.341919
2.38104,0.439836,-0.353535
2.35808,0.525276,-0.376243
2.34232,0.612309,-0.400929
2.32464,0.699944,-0.427026
2.3381,0.428951,-0.437228
2.30874,0.512975,-0.45809
2.29631,0.599126,-0.483822
2.25315,0.586646,-0.565676
2.58534,0.665166,0.049906
2.58227,0.466084,0.0034806
2.56151,0.559547,-0.0215997
2.48014,0.635332,-0.13915
2.46837,0.728841,-0.164812
2.44947,0.532432,-0.2045
2.42101,0.714349,-0.254574
2.37669,0.606755,-0.31453
2.37087,0.698205,-0.341371
2.38272,0.425044,-0.353391
2.35933,0.51038,-0.375935
2.34125,0.596707,-0.400112
2.32606,0.684833,-0.426506
2.33197,0.413053,-0.4356
2.30897,0.498178,-0.45752
2.2895,0.582368,-0.481624
2.25953,0.573527,-0.566385
2.2137,0.561895,-0.647828
2.59228,0.65002,0.0499621
2.58311,0.449888,0.00347795
2.52768,0.63237,-0.0464814
2.48302,0.619861,-0.139095
2.46034,0.710084,-0.163981
2.44879,0.516569,-0.204175
2.41961,0.697826,-0.253972
2.38037,0.59216,-0.31453
2.38626,0.410584,-0.353535
2.35275,0.493864,-0.374397
2.34487,0.58233,-0.400112
2.32454,0.668913,-0.425467
2.33059,0.398074,-0.434876
2.30814,0.483196,-0.456759
2.29303,0.568309,-0.481624
2.27034,0.653062,-0.506067
2.2498,0.556386,-0.563079
2.25167,0.380712,-0.599481
2.21337,0.547377,-0.646737
2.58287,0.433533,0.00347397
2.52666,0.615664,-0.0463923
2.51307,0.515687,-0.114791
2.48096,0.603198,-0.13877
2.46657,0.695516,-0.164109
2.45485,0.502133,-0.204419
2.42719,0.589227,-0.227263
2.42289,0.682697,-0.253871
2.43883,0.406031,-0.269112
2.38396,0.577543,-0.31453
2.37735,0.668522,-0.341098
2.38385,0.395126,-0.352813
2.35767,0.479812,-0.374704
2.35127,0.568627,-0.400602
2.32575,0.653838,-0.424947
2.33493,0.384085,-0.435238
2.30817,0.468439,-0.456189
2.29266,0.553309,-0.480825
2.27148,0.638325,-0.505439
2.2579,0.543709,-0.56426
2.2511,0.366423,-0.598719
2.21014,0.532209,-0.644827
2.65952,0.532471,0.175967
2.58252,0.417198,0.00346999
2.56255,0.510545,-0.0215255
2.52942,0.599919,-0.0463744
2.47587,0.585894,-0.138281
2.4602,0.677454,-0.163406
2.45788,0.487061,-0.204419
2.42415,0.667026,-0.25357
2.43931,0.390744,-0.268896
2.41995,0.478052,-0.292523
2.38939,0.56336,-0.314785
2.37376,0.651824,-0.340003
2.39014,0.381114,-0.353391
2.36154,0.465528,-0.374858
2.348,0.552607,-0.399458
2.32877,0.639295,-0.424774
2.33238,0.368983,-0.434333
2.31582,0.455214,-0.45714
2.29411,0.538783,-0.480426
2.25267,0.527849,-0.562135
2.25808,0.353351,-0.599989
2.21243,0.518419,-0.644554
2.66959,0.517472,0.17642
2.57591,0.694509,0.0242137
2.587,0.401651,0.00347265
2.56269,0.494244,-0.0215008
2.5389,0.585736,-0.0464814
2.48428,0.571812,-0.138553
2.46239,0.661828,-0.163278
2.4618,0.472158,-0.2045
2.42339,0.650848,-0.253068
2.4397,0.375467,-0.268679
2.38506,0.546915,-0.313767
2.37676,0.63699,-0.339866
2.39048,0.366142,-0.353102
2.36532,0.451214,-0.375012
2.3475,0.537309,-0.398805
2.3317,0.624739,-0.424601
2.33849,0.355255,-0.435057
2.31375,0.440079,-0.456189
2.29546,0.52426,-0.480026
2.24734,0.512074,-0.56001
2.2283,0.596826,-0.585563
2.25829,0.339202,-0.599481
2.74106,0.41203,0.308758
2.6737,0.501266,0.176485
2.57722,0.677927,0.0241864
2.58744,0.385475,0.00346999
2.56272,0.47796,-0.0214761
2.53464,0.568396,-0.0463388
2.48579,0.556122,-0.138444
2.46737,0.646959,-0.163342
2.46465,0.457044,-0.2045
2.4283,0.636218,-0.253169
2.44196,0.36049,-0.268679
2.39128,0.532917,-0.314149
2.37871,0.621893,-0.339593
2.3917,0.351323,-0.352958
2.36221,0.435617,-0.374089
2.34786,0.522252,-0.398315
2.33358,0.609922,-0.424254
2.34257,0.341184,-0.435419
2.3164,0.425874,-0.456189
2.29863,0.510166,-0.480026
2.27623,0.594676,-0.503973
2.26088,0.500586,-0.562607
2.25267,0.324236,-0.59745
2.21956,0.491438,-0.644827
2.74551,0.395487,0.30898
2.67672,0.484851,0.176485
2.64503,0.37927,0.10125
2.5858,0.369027,0.00346469
2.56167,0.461517,-0.0214432
2.53808,0.552833,-0.0463388
2.4833,0.539586,-0.138118
2.46936,0.631313,-0.163214
2.46545,0.441561,-0.204338
2.42831,0.620322,-0.252767
2.39838,0.519074,-0.314658
2.37192,0.604595,-0.338088
2.39381,0.336642,-0.352958
2.36679,0.421461,-0.374397
2.33848,0.505128,-0.396191
2.33346,0.594619,-0.423561
2.3456,0.326939,-0.4356
2.32187,0.412167,-0.456759
2.27794,0.580216,-0.503554
2.26486,0.486908,-0.562843
2.21501,0.476192,-0.642644
2.18975,0.557836,-0.666735
2.74591,0.378362,0.308758
2.67867,0.468246,0.17642
2.65462,0.563988,0.149734
2.64137,0.362218,0.101023
2.62433,0.457662,0.0752481
2.58702,0.353018,0.00346336
2.56642,0.446133,-0.0214596
2.55022,0.539111,-0.0464993
2.52081,0.437162,-0.114478
2.48168,0.523309,-0.137847
2.47028,0.615426,-0.163022
2.46124,0.425237,-0.203769
2.43242,0.512035,-0.226176
2.42627,0.603968,-0.252165
2.39084,0.502106,-0.313259
2.36693,0.587881,-0.336856
2.39681,0.322079,-0.353102
2.36836,0.406764,-0.374243
2.33516,0.579815,-0.423215
2.34756,0.312541,-0.4356
2.31952,0.397084,-0.455809
2.27576,0.564814,-0.502297
2.26971,0.473399,-0.563316
2.74818,0.361506,0.308758
2.67657,0.450972,0.176096
2.6551,0.547085,0.149568
2.62512,0.441219,0.0751916
2.58121,0.336105,0.00345275
2.55728,0.428395,-0.0213608
2.5339,0.519437,-0.0461426
2.51557,0.420369,-0.11412
2.48582,0.508272,-0.137901
2.47401,0.600257,-0.163022
2.49278,0.322291,-0.180437
2.46675,0.410618,-0.204013
2.43649,0.497299,-0.226266
2.4251,0.587897,-0.251664
2.3782,0.575209,-0.337951
2.39188,0.306486,-0.352091
2.36593,0.391418,-0.373473
2.33867,0.565476,-0.423215
2.34358,0.297388,-0.434514
2.32191,0.382845,-0.455809
2.29899,0.466017,-0.478229
2.28774,0.552907,-0.504182
2.26495,0.457923,-0.561427
2.23945,0.541278,-0.584825
2.2477,0.281395,-0.594657
2.21786,0.448402,-0.641825
2.75429,0.345131,0.309201
2.67436,0.433742,0.175773
2.65547,0.530196,0.149403
2.6466,0.329901,0.101061
2.57925,0.319769,0.00344744
2.56776,0.413969,-0.0214267
2.5439,0.505243,-0.0462674
2.53208,0.599227,-0.0714085
2.52402,0.405878,-0.114388
2.48694,0.492621,-0.137793
2.47764,0.585065,-0.163022
2.49273,0.306746,-0.180294
2.46332,0.394529,-0.203525
2.43559,0.481567,-0.225904
2.41704,0.570265,-0.250459
2.38904,0.471193,-0.312241
2.37397,0.55879,-0.336856
2.39371,0.291804,-0.352091
2.36731,0.376738,-0.373319
2.35029,0.46257,-0.396681
2.33443,0.549311,-0.421829
2.3395,0.282295,-0.433429
2.32616,0.368898,-0.456189
2.29892,0.451335,-0.477629
2.28252,0.536845,-0.502297
2.29263,0.361776,-0.54007
2.2639,0.44327,-0.560482
2.23612,0.525973,-0.583103
2.2234,0.43534,-0.642644
2.7534,0.327872,0.308869
2.72383,0.425506,0.279498
2.7064,0.321605,0.203062
2.68091,0.417939,0.176032
2.64858,0.313656,0.101061
2.58121,0.594959,0.0240412
2.58216,0.304053,0.00344877
2.57025,0.398205,-0.0214267
2.53812,0.487926,-0.0461069
2.53376,0.58323,-0.0713536
2.48403,0.476225,-0.137467
2.47924,0.569405,-0.162895
2.49457,0.291445,-0.180294
2.46372,0.379104,-0.203362
2.41952,0.555201,-0.250359
2.39189,0.456525,-0.312241
2.36963,0.542445,-0.335762
2.39251,0.27677,-0.351657
2.37056,0.362355,-0.373473
2.34339,0.446295,-0.395047
2.33199,0.533658,-0.420789
2.33826,0.267599,-0.432886
2.32061,0.353435,-0.454668
2.29972,0.436855,-0.47723
2.28291,0.522175,-0.501669
2.24498,0.513539,-0.584579
2.26829,0.255742,-0.599227
2.21563,0.41972,-0.639642
2.75536,0.310971,0.308869
2.72442,0.40849,0.279296
2.70734,0.304882,0.202987
2.64747,0.297064,0.100947
2.57993,0.578016,0.0239959
2.58298,0.288093,0.00344744
2.56968,0.381986,-0.021402
2.53811,0.471795,-0.0460534
2.53242,0.566581,-0.0712164
2.47782,0.553095,-0.162575
2.49829,0.276352,-0.180437
2.46896,0.364416,-0.203606
2.42191,0.540128,-0.250259
2.39952,0.44274,-0.312877
2.38548,0.530692,-0.33754
2.39514,0.262192,-0.351802
2.37665,0.348376,-0.374089
2.3333,0.518912,-0.420443
2.34181,0.253459,-0.433248
2.32468,0.339473,-0.455048
2.29371,0.509855,-0.503344
2.24714,0.499545,-0.584333
2.26885,0.241717,-0.598973
2.21627,0.40577,-0.639096
2.76018,0.294375,0.309201
2.73279,0.392614,0.279901
2.70816,0.288158,0.202913
2.68189,0.384442,0.175773
2.66085,0.480518,0.149183
2.65024,0.280919,0.100985
2.58734,0.563026,0.0240322
2.58569,0.272344,0.00344877
2.56108,0.364661,-0.0213113
2.53584,0.551032,-0.0712164
2.52611,0.358648,-0.114165
2.47434,0.536401,-0.162128
2.49895,0.260914,-0.180365
2.46918,0.348981,-0.203443
2.43816,0.435604,-0.22536
2.43491,0.527363,-0.251262
2.42888,0.341816,-0.290874
2.39243,0.426269,-0.311605
2.38869,0.516045,-0.33754
2.40261,0.248101,-0.352669
2.37874,0.333786,-0.374089
2.34675,0.417159,-0.39472
2.33644,0.504585,-0.420443
2.3443,0.239185,-0.433429
2.3238,0.324795,-0.454477
2.30202,0.408088,-0.47663
2.28819,0.493915,-0.501459
2.26402,0.400171,-0.558594
2.76193,0.277433,0.309201
2.73712,0.37611,0.280103
2.7069,0.271238,0.20269
2.68321,0.367843,0.175708
2.6608,0.463668,0.149017
2.65092,0.264553,0.100947
2.58781,0.54652,0.0240049
2.58931,0.25667,0.00345142
2.56624,0.349344,-0.0213361
2.53233,0.534018,-0.0710244
2.5253,0.342738,-0.114031
2.48745,0.429571,-0.137196
2.48344,0.522441,-0.162511
2.5005,0.245576,-0.180365
2.46139,0.33249,-0.20263
2.42933,0.510571,-0.250359
2.43192,0.327039,-0.290992
2.40086,0.412589,-0.312368
2.38988,0.500972,-0.337267
2.40409,0.233354,-0.352669
2.37879,0.318922,-0.373781
2.35315,0.403418,-0.395374
2.33564,0.489432,-0.41975
2.34866,0.225077,-0.433971
2.32478,0.310401,-0.454287
2.30931,0.394781,-0.477629
2.28448,0.478462,-0.499993
2.26876,0.213584,-0.598212
2.76358,0.260481,0.309201
2.73543,0.35879,0.279699
2.65768,0.446341,0.148687
2.65349,0.248376,0.100985
2.63363,0.343521,0.0750222
2.58785,0.2405,0.00344744
2.56338,0.332948,-0.0212949
2.53556,0.51847,-0.0710244
2.49103,0.414464,-0.13725
2.47487,0.5048,-0.161744
2.46734,0.31789,-0.202955
2.4295,0.495059,-0.250058
2.40139,0.397526,-0.312114
2.38223,0.484128,-0.335762
2.40449,0.218509,-0.352524
2.37972,0.304194,-0.373627
2.36143,0.389936,-0.396354
2.34053,0.475483,-0.420096
2.35,0.210662,-0.433971
2.32664,0.29613,-0.454287
2.32039,0.382037,-0.479427
2.28929,0.464825,-0.500412
2.26397,0.371571,-0.557413
2.27099,0.199744,-0.598466
2.22242,0.364751,-0.638823
2.76513,0.243519,0.309201
2.74153,0.342493,0.280103
2.71202,0.238174,0.202839
2.68554,0.334642,0.175578
2.65544,0.429229,0.148411
2.6347,0.327232,0.074994
2.61184,0.420918,0.0494574
2.5904,0.513944,0.0239686
2.59525,0.225135,0.0034554
2.56736,0.317458,-0.0213113
2.53379,0.501931,-0.0708872
2.5313,0.311967,-0.11412
2.49057,0.398698,-0.137087
2.47498,0.489025,-0.161553
2.46727,0.302502,-0.202793
2.43737,0.481106,-0.25056
2.40574,0.383096,-0.312368
2.38807,0.470076,-0.336172
2.40283,0.2035,-0.352091
2.37958,0.289349,-0.373319
2.3589,0.374666,-0.395537
2.3318,0.458831,-0.418018
2.35811,0.196811,-0.435238
2.32451,0.281377,-0.453527
2.31398,0.366413,-0.477629
2.26908,0.358127,-0.558121
2.24541,0.441628,-0.580888
2.22652,0.351408,-0.639369
2.76063,0.226062,0.308537
2.73666,0.324844,0.279397
2.71243,0.221448,0.202765
2.66971,0.316046,0.174413
2.65901,0.41308,0.148466
2.62971,0.31024,0.0747963
2.58958,0.497285,0.0239323
2.59957,0.209448,0.00345938
2.57422,0.302282,-0.0213525
2.5425,0.392344,-0.0458929
2.53584,0.486186,-0.0708598
2.53217,0.296314,-0.114076
2.49691,0.384016,-0.137304
2.47892,0.474017,-0.161616
2.50261,0.19935,-0.180222
2.46908,0.287358,-0.202793
2.44125,0.466329,-0.25066
2.43456,0.281877,-0.290638
2.40511,0.367877,-0.311987
2.38701,0.454673,-0.335625
2.40206,0.188598,-0.351802
2.38523,0.275195,-0.373935
2.35921,0.359887,-0.39521
2.33554,0.444699,-0.418191
2.35437,0.18196,-0.434333
2.3262,0.267109,-0.453527
2.31425,0.351913,-0.47723
2.2674,0.343615,-0.557177
2.25741,0.256058,-0.620113
2.23434,0.338605,-0.641006
2.75602,0.208668,0.307873
2.73168,0.307267,0.278691
2.70877,0.204425,0.202393
2.6716,0.299659,0.174413
2.63255,0.29421,0.0748245
2.58176,0.479379,0.0238325
2.60081,0.193493,0.00345938
2.57206,0.286039,-0.0213196
2.53976,0.4708,-0.0708872
2.50317,0.369271,-0.137522
2.47687,0.45789,-0.161297
2.47674,0.272857,-0.203281
2.44545,0.359883,-0.224907
2.43624,0.449895,-0.249857
2.41223,0.353833,-0.312623
2.39755,0.441453,-0.336719
2.40515,0.173999,-0.352091
2.38688,0.260555,-0.373935
2.36723,0.346261,-0.396191
2.33338,0.429469,-0.417325
2.35838,0.167719,-0.434876
2.33072,0.253148,-0.454097
2.3183,0.337989,-0.477629
2.25223,0.241482,-0.618269
2.23637,0.324889,-0.641006
2.76815,0.192512,0.30909
2.73451,0.290605,0.278792
2.72061,0.389925,0.252688
2.6962,0.486592,0.225297
2.71196,0.187938,0.202542
2.67835,0.283786,0.174737
2.63332,0.277946,0.0747963
2.58072,0.462822,0.0237962
2.60195,0.177531,0.00345938
2.57376,0.270252,-0.0213196
2.54162,0.455031,-0.0708598
2.53562,0.265218,-0.114076
2.50243,0.353486,-0.137359
2.47374,0.441632,-0.160914
2.48035,0.257861,-0.203443
2.44663,0.344733,-0.224816
2.42916,0.433191,-0.248854
2.40748,0.338059,-0.311732
2.38656,0.424306,-0.334804
2.4111,0.159564,-0.352813
2.38548,0.2456,-0.373473
2.36833,0.331593,-0.396027
2.33597,0.415144,-0.417325
2.36526,0.153628,-0.435961
2.33125,0.238743,-0.453907
2.31063,0.322404,-0.475632
2.29038,0.406793,-0.498317
2.27144,0.315764,-0.557177
2.25175,0.227464,-0.617743
2.23737,0.311028,-0.640733
2.74317,0.274515,0.279498
2.71308,0.371872,0.251773
2.70109,0.470381,0.225461
2.71306,0.171295,0.202542
2.68302,0.267644,0.174931
2.63696,0.261981,0.0748528
2.59238,0.448513,0.0238779
2.60199,0.161501,0.00345805
2.5704,0.253963,-0.0212784
2.53944,0.438577,-0.0707226
2.50752,0.338526,-0.137522
2.4764,0.426445,-0.160914
2.47891,0.242346,-0.203199
2.43471,0.418784,-0.249155
2.40754,0.323017,-0.311478
2.38912,0.409654,-0.334804
2.38399,0.230673,-0.373012
2.37521,0.317709,-0.396844
2.33654,0.40047,-0.416978
2.36714,0.13917,-0.436142
2.33072,0.224246,-0.453527
2.31645,0.308738,-0.476431
2.26659,0.300926,-0.555524
2.26078,0.214371,-0.619849
2.23542,0.296787,-0.639642
2.74381,0.257585,0.279397
2.71531,0.355218,0.251773
2.7059,0.454129,0.225625
2.70908,0.154361,0.20217
2.68361,0.251083,0.174866
2.64051,0.245981,0.0749092
2.61955,0.340087,0.0493826
2.58818,0.431447,0.0238143
2.60393,0.145588,0.00345938
2.57191,0.238187,-0.0212784
2.54838,0.329445,-0.0458393
2.53912,0.422495,-0.0706403
2.50856,0.323006,-0.137467
2.48193,0.411732,-0.161105
2.47836,0.22695,-0.203037
2.44116,0.404488,-0.249556
2.40849,0.308113,-0.311351
2.39354,0.39531,-0.335077
2.41387,0.130017,-0.352958
2.38635,0.21613,-0.373165
2.37516,0.302879,-0.396517
2.34089,0.386446,-0.417325
2.31927,0.294642,-0.47663
2.29616,0.378815,-0.498527
2.2768,0.11602,-0.598466
2.73642,0.239962,0.278489
2.7125,0.337935,0.251315
2.70666,0.437199,0.225461
2.71894,0.138191,0.202839
2.68809,0.234873,0.175061
2.6635,0.330461,0.148081
2.65107,0.426795,0.122592
2.6637,0.134311,0.101061
2.58979,0.415399,0.0238053
2.60577,0.129658,0.00346071
2.57332,0.222401,-0.0212784
2.55036,0.313803,-0.0458393
2.54463,0.407381,-0.0707226
2.50157,0.306515,-0.136979
2.47849,0.395551,-0.160722
2.48567,0.212247,-0.203525
2.43869,0.388718,-0.249055
2.40738,0.292969,-0.310969
2.40277,0.381704,-0.336035
2.41166,0.115062,-0.352524
2.38468,0.201235,-0.372704
2.37305,0.287825,-0.395864
2.34419,0.37223,-0.417498
2.33525,0.195791,-0.453907
2.32298,0.280641,-0.47703
2.79011,0.33191,0.361985
2.73883,0.223248,0.27859
2.7254,0.322573,0.252322
2.68948,0.218375,0.175061
2.66647,0.314229,0.148136
2.66448,0.117964,0.101061
2.59427,0.399806,0.0238234
2.58062,0.207088,-0.0213278
2.55224,0.298148,-0.0458393
2.54214,0.391,-0.0705855
2.49944,0.290698,-0.136762
2.48877,0.381546,-0.161233
2.48692,0.196992,-0.203525
2.43906,0.373446,-0.248854
2.40716,0.277965,-0.310715
2.40507,0.366954,-0.336035
2.38981,0.186907,-0.373319
2.37085,0.272808,-0.39521
2.34643,0.357839,-0.417498
2.34032,0.181763,-0.454668
2.31882,0.265713,-0.475831
2.30064,0.350609,-0.498527
2.27561,0.259595,-0.556469
2.73618,0.20614,0.278187
2.6848,0.20142,0.174672
2.6614,0.297086,0.14775
2.64459,0.197336,0.0749092
2.61941,0.291149,0.0492705
2.59271,0.383295,0.0237871
2.57984,0.191101,-0.0213113
2.55402,0.282482,-0.0458393
2.53757,0.374373,-0.0703934
2.51507,0.276886,-0.137522
2.496,0.366994,-0.161553
2.4851,0.181511,-0.203281
2.4482,0.359485,-0.249556
2.40981,0.263297,-0.310842
2.39485,0.172524,-0.373935
2.35053,0.34372,-0.417844
2.34433,0.16761,-0.455238
2.3243,0.251902,-0.47663
2.29985,0.336062,-0.497898
2.27523,0.245419,-0.555997
2.28145,0.0741863,-0.599227
2.77227,0.295335,0.359174
2.74236,0.18969,0.278691
2.67901,0.184463,0.174219
2.66317,0.28075,0.14775
2.66073,0.0850985,0.100871
2.6112,0.274028,0.0490836
2.59403,0.367239,0.023778
2.61272,0.0818283,0.00346734
2.58296,0.175404,-0.0213278
2.56167,0.267429,-0.0459464
2.54279,0.359215,-0.0704757
2.50679,0.260417,-0.136979
2.49721,0.351533,-0.161489
2.48617,0.166259,-0.203281
2.44838,0.34418,-0.249356
2.41631,0.249015,-0.311478
2.40645,0.337,-0.335625
2.39389,0.157696,-0.373627
2.37991,0.244298,-0.396191
2.3526,0.329291,-0.417844
2.34532,0.153222,-0.455238
2.30477,0.32235,-0.498527
2.28152,0.231945,-0.557177
2.75751,0.37814,0.331595
2.75042,0.173298,0.279397
2.72394,0.27166,0.251681
2.68408,0.168271,0.174478
2.66087,0.26401,0.14753
2.65721,0.0686677,0.10072
2.64681,0.164868,0.0749092
2.61582,0.258296,0.0491397
2.59722,0.351449,0.0237871
2.61317,0.0657955,0.00346734
2.58499,0.159613,-0.0213361
2.539,0.342804,-0.0703111
2.50635,0.244836,-0.13687
2.49636,0.335804,-0.161297
2.51578,0.0610588,-0.180652
2.49013,0.151182,-0.203525
2.46413,0.239843,-0.225269
2.45439,0.32968,-0.249757
2.42076,0.23447,-0.31186
2.40749,0.322096,-0.335488
2.40073,0.143358,-0.37455
2.37842,0.229406,-0.395701
2.35457,0.31485,-0.417844
2.35405,0.139292,-0.456759
2.32234,0.222892,-0.475632
2.3038,0.307814,-0.497898
2.28387,0.218034,-0.557413
2.7826,0.261943,0.360068
2.7647,0.361857,0.332186
2.68307,0.151686,0.174348
2.67039,0.248418,0.147971
2.66557,0.0525196,0.101023
2.64977,0.148737,0.0749657
2.61835,0.242332,0.0491584
2.5904,0.334355,0.0237054
2.60753,0.0496459,0.00345938
2.58792,0.14386,-0.0213525
2.54006,0.327091,-0.0702837
2.5088,0.229544,-0.136925
2.4954,0.3201,-0.161105
2.45045,0.313856,-0.249155
2.41721,0.219165,-0.311224
2.39959,0.306065,-0.33412
2.39762,0.128413,-0.373935
2.37978,0.214808,-0.395701
2.35744,0.300521,-0.418018
2.37585,0.0374783,-0.437047
2.35585,0.124897,-0.45695
2.31049,0.29429,-0.498946
2.28226,0.203757,-0.556705
2.23652,0.199673,-0.636913
2.78712,0.245125,0.360451
2.76096,0.344149,0.331477
2.71715,0.237347,0.250766
2.68494,0.13527,0.174413
2.66988,0.231855,0.14786
2.66684,0.0361765,0.101061
2.62178,0.226434,0.0491957
2.58943,0.318088,0.0236782
2.60978,0.0336713,0.00346203
2.59474,0.128275,-0.021402
2.54599,0.311985,-0.0703934
2.51414,0.214486,-0.137142
2.49336,0.304299,-0.16085
2.49777,0.120902,-0.204013
2.45035,0.298573,-0.248954
2.42247,0.204663,-0.311732
2.40929,0.29229,-0.335214
2.39935,0.113746,-0.374089
2.37909,0.200036,-0.395374
2.35826,0.285932,-0.417844
2.37406,0.0228807,-0.436685
2.35657,0.11044,-0.45695
2.32295,0.194213,-0.475232
2.28831,0.190152,-0.557885
2.23195,0.185468,-0.635276
2.78066,0.227372,0.359429
2.77485,0.328603,0.332896
2.67921,0.216111,0.148301
2.67201,0.0198495,0.10125
2.6281,0.210742,0.0492892
2.59232,0.30231,0.0236873
2.60294,0.01761,0.00345275
2.59848,0.112481,-0.0214267
2.54686,0.296242,-0.070366
2.51641,0.199134,-0.137196
2.49319,0.288764,-0.160722
2.49846,0.105574,-0.204013
2.44918,0.28319,-0.248653
2.42664,0.190027,-0.312114
2.41104,0.277501,-0.335214
2.37732,0.185205,-0.394884
2.35214,0.270556,-0.416459
2.37711,0.00832364,-0.437228
2.35916,0.0960581,-0.45733
2.32996,0.18041,-0.476431
2.24456,0.172655,-0.63855
2.7199,0.303311,0.225051
2.6874,0.10235,0.174478
2.6775,0.199445,0.148136
2.66908,0.00345015,0.101136
2.65206,0.0999379,0.0749657
2.59016,0.285959,0.023651
2.604,0.00163898,0.00345408
2.59612,0.0964234,-0.021402
2.5546,0.281266,-0.0705306
2.51459,0.183472,-0.137033
2.49492,0.273461,-0.160722
2.49906,0.0902416,-0.204013
2.45186,0.268265,-0.248754
2.42282,0.174777,-0.311478
2.4127,0.262702,-0.335214
2.40353,0.0843977,-0.37455
2.37644,0.170473,-0.394557
2.34788,0.255479,-0.415419
2.37712,-0.00626219,-0.437228
2.35971,0.0815807,-0.45733
2.32906,0.165971,-0.476031
2.29629,0.162468,-0.559302
2.69097,0.085954,0.174672
2.67369,0.182672,0.14786
2.66462,0.279193,0.122318
2.66006,-0.0128835,0.100796
2.65062,0.0836002,0.0749092
2.6285,0.17834,0.0492518
2.59087,0.269957,0.0236419
2.60296,-0.0143334,0.00345275
2.59267,0.0803681,-0.021369
2.56678,0.172758,-0.0458929
2.55727,0.265689,-0.070558
2.51866,0.168239,-0.137196
2.49953,0.258455,-0.160914
2.45346,0.253215,-0.248754
2.42681,0.160104,-0.31186
2.4123,0.247691,-0.334941
2.42423,-0.0182997,-0.353969
2.40499,0.0696769,-0.374704
2.38237,0.156211,-0.395374
2.35725,0.241872,-0.416805
2.379,-0.020865,-0.437589
2.36115,0.0671282,-0.45752
2.33786,0.152187,-0.477629
2.28367,0.147498,-0.555997
2.24555,0.145036,-0.638278
2.71846,0.269419,0.224641
2.67377,0.166202,0.147805
2.6643,0.262642,0.122227
2.65009,0.0673093,0.074881
2.63154,0.162332,0.0492892
2.59347,0.254152,0.023651
2.61282,-0.030421,0.00346601
2.59411,0.0644831,-0.0213772
2.57977,0.157738,-0.0461069
2.56084,0.250187,-0.0706129
2.51765,0.15266,-0.137087
2.50107,0.243114,-0.160914
2.50098,0.0595912,-0.204094
2.46234,0.148444,-0.224454
2.45694,0.238349,-0.248954
2.43171,0.145447,-0.312368
2.4118,0.232694,-0.334667
2.35967,0.227498,-0.416978
2.35268,0.0524423,-0.455809
2.33875,0.137839,-0.477629
2.29423,0.13405,-0.558358
2.2512,0.131535,-0.639642
2.71808,0.252549,0.224477
2.67573,0.149848,0.14786
2.65445,0.0511244,0.074994
2.63348,0.146237,0.0493079
2.59797,0.238508,0.0236782
2.61358,-0.0464701,0.00346734
2.59446,0.0485648,-0.0213772
2.55237,0.233559,-0.0703386
2.55302,0.0467639,-0.114254
2.52153,0.137372,-0.13725
2.49655,0.22722,-0.16053
2.50329,0.0442796,-0.204256
2.46619,0.133494,-0.224726
2.45241,0.222729,-0.248352
2.43355,0.130577,-0.312495
2.41417,0.217981,-0.334804
2.4258,-0.0480866,-0.354258
2.35807,0.21275,-0.416459
2.35688,0.0380689,-0.456569
2.34249,0.123641,-0.478229
2.24332,0.117268,-0.637186
2.71958,0.235867,0.224477
2.6766,0.133428,0.14786
2.65171,0.0347967,0.0749092
2.63433,0.130076,0.0493079
2.60536,0.223075,0.0237327
2.61525,-0.0625537,0.00346999
2.59171,0.0326068,-0.0213525
2.55276,0.217808,-0.0703111
2.55126,0.0310736,-0.114165
2.51934,0.121753,-0.137087
2.50187,0.212235,-0.160786
2.47591,0.118789,-0.225541
2.45175,0.207509,-0.248152
2.43529,0.115689,-0.312623
2.42744,-0.0630214,-0.354547
2.40982,0.0254389,-0.37532
2.35934,0.198277,-0.416459
2.361,0.023646,-0.45733
2.34027,0.109128,-0.477629
2.31028,0.193911,-0.496641
2.29667,0.105931,-0.558594
2.24399,0.103501,-0.637186
2.78408,0.226166,0.332778
2.72395,0.219415,0.224723
2.65788,0.0185674,0.0750787
2.63108,0.113737,0.0492331
2.61166,0.20748,0.023778
2.61482,-0.0785994,0.00346999
2.59386,0.0167167,-0.021369
2.56302,0.20285,-0.070558
2.5534,0.0154309,-0.114254
2.52403,0.106461,-0.137304
2.51109,0.197505,-0.161297
2.50066,0.0135409,-0.204013
2.47062,0.103345,-0.224998
2.45992,0.193006,-0.248854
2.43596,0.100745,-0.312623
2.37425,0.184867,-0.418884
2.36503,0.00917397,-0.45809
2.34481,0.0949253,-0.478428
2.31532,0.180035,-0.497479
2.29728,0.0918366,-0.558594
2.25324,0.0900759,-0.639642
2.78244,0.208856,0.332423
2.70736,0.201367,0.223248
2.67305,0.100384,0.147585
2.65894,0.00225945,0.0751069
2.63573,0.0977389,0.0493079
2.61388,0.191525,0.0237871
2.61429,-0.0946422,0.00346999
2.59491,0.000801063,-0.0213772
2.57387,0.0940507,-0.0459464
2.55823,0.186684,-0.0703934
2.52463,0.0909719,-0.137304
2.50926,0.181878,-0.161105
2.50268,-0.00180453,-0.204175
2.47221,0.0882188,-0.225088
2.45709,0.177622,-0.248453
2.47563,-0.0929107,-0.269653
2.43752,0.0858309,-0.31275
2.42073,0.173719,-0.335214
2.40896,-0.00413348,-0.375166
2.3724,0.170084,-0.418364
2.367,-0.00534216,-0.458471
2.34241,0.0804351,-0.477829
2.29974,0.0778047,-0.559066
2.29232,-0.094326,-0.602274
2.24221,0.0758583,-0.636367
2.7165,0.185293,0.223904
2.67262,0.0839495,0.14753
2.6589,-0.0140555,0.0751069
2.63728,0.0815955,0.0493266
2.61202,0.175282,0.0237599
2.61465,-0.110724,0.00347132
2.5774,0.0783471,-0.0459999
2.55634,0.170783,-0.0703111
2.52614,0.0755092,-0.137359
2.50834,0.166346,-0.160977
2.50661,-0.017188,-0.2045
2.47967,0.0732538,-0.225722
2.45913,0.162608,-0.248553
2.47799,-0.108229,-0.269978
2.43503,0.0707864,-0.312368
2.42685,-0.107736,-0.354691
2.41383,-0.0189533,-0.375935
2.3734,0.155524,-0.418364
2.36692,-0.0198657,-0.458471
2.34286,0.0660609,-0.477829
2.2888,-0.108253,-0.601513
2.25033,0.062312,-0.63855
2.71858,0.168684,0.223985
2.65977,-0.0303814,0.0751351
2.63973,0.0654615,0.049364
2.61404,0.159312,0.023769
2.60993,-0.126571,0.00346601
2.55434,0.154913,-0.0702288
2.52855,0.0600551,-0.137467
2.5143,0.151251,-0.161297
2.47908,0.0580141,-0.225632
2.46008,0.147516,-0.248553
2.43641,0.0558668,-0.312495
2.42169,0.143941,-0.335077
2.41367,-0.0337639,-0.375935
2.3877,-0.123606,-0.43976
2.34812,0.0517922,-0.478828
2.31532,0.137213,-0.496851
2.30344,0.0496403,-0.559774
2.24971,0.0484823,-0.638278
2.71857,0.151944,0.223904
2.64754,-0.0464902,0.0747963
2.63408,0.0491513,0.0492518
2.60998,0.142996,0.0237236
2.59749,-0.0470172,-0.021402
2.57517,0.0466582,-0.0459464
2.55425,0.139183,-0.0702014
2.52488,0.0444687,-0.13725
2.51219,0.135659,-0.161105
2.50522,-0.0479277,-0.204419
2.47142,0.0426642,-0.224907
2.46293,0.132525,-0.248754
2.44166,0.0409995,-0.313131
2.42154,0.129027,-0.334941
2.41045,-0.0485136,-0.375474
2.38689,-0.138254,-0.43976
2.35231,0.0374458,-0.479627
2.31514,0.122952,-0.496641
2.29884,0.0354309,-0.558594
2.25958,0.0348257,-0.641006
2.72343,0.135458,0.224231
2.67298,0.131546,0.122181
2.63733,0.0330255,0.0493079
2.61181,0.127027,0.0237327
2.61014,-0.0632692,-0.0215091
2.5774,0.0308803,-0.045982
2.55006,0.123266,-0.0700642
2.52011,0.0289182,-0.136979
2.50898,0.120052,-0.16085
2.50587,-0.0633237,-0.2045
2.47662,0.0275544,-0.22536
2.47065,0.117742,-0.249456
2.47855,-0.154007,-0.270303
2.42526,0.114306,-0.335351
2.41505,-0.0634326,-0.376243
2.38698,-0.15296,-0.439941
2.34858,0.0229733,-0.478828
2.29416,0.0212797,-0.557413
2.25686,0.0209338,-0.640188
2.67174,0.115056,0.12209
2.64048,0.0168616,0.049364
2.61154,0.110957,0.0237236
2.60271,-0.079071,-0.0214514
2.57955,0.0150768,-0.0460177
2.55377,0.107743,-0.0701465
2.52424,0.0134758,-0.137196
2.51067,0.104696,-0.160914
2.50942,-0.0788234,-0.204826
2.47375,0.0123428,-0.225088
2.47232,0.102621,-0.249556
2.44099,0.011029,-0.313004
2.4269,0.0994633,-0.335488
2.41757,-0.0783459,-0.376705
2.39832,0.00987343,-0.397171
2.38698,-0.167673,-0.440122
2.31745,0.0945724,-0.496851
2.30105,0.00722396,-0.559066
2.27199,0.092757,-0.577198
2.67539,0.0987713,0.122227
2.64354,0.000660356,0.04942
2.61617,0.095076,0.0237599
2.59918,-0.09493,-0.0214267
2.57259,-0.000749272,-0.0458929
2.57236,0.0927198,-0.0706403
2.52228,-0.00201126,-0.137087
2.50229,0.0889698,-0.160338
2.51387,-0.0944064,-0.205232
2.47677,-0.00283952,-0.22536
2.44696,-0.00395846,-0.313767
2.43721,-0.183241,-0.356858
2.41902,-0.0932545,-0.377013
2.39537,-0.00483657,-0.396681
2.38492,-0.182241,-0.439941
2.37109,-0.0926914,-0.459612
2.35456,-0.00586373,-0.480026
2.29619,-0.00688058,-0.557885
2.28256,-0.092383,-0.623536
2.26369,-0.00678318,-0.642098
2.67495,0.0823228,0.122181
2.64049,-0.0155424,0.049364
2.6197,0.0791123,0.0237871
2.56689,0.0767551,-0.0704757
2.52721,-0.0175222,-0.137359
2.50778,0.073761,-0.160658
2.51324,-0.109829,-0.205232
2.47471,-0.0180221,-0.225179
2.44788,-0.0189804,-0.313895
2.43604,-0.198192,-0.356858
2.41446,-0.107919,-0.376397
2.39135,-0.019502,-0.396027
2.38376,-0.196871,-0.439941
2.37047,-0.107238,-0.459612
2.30291,-0.0210317,-0.559538
2.26264,-0.020664,-0.641825
2.66641,0.0656867,0.121771
2.64335,-0.03178,0.04942
2.61414,0.0628923,0.0237327
2.56731,0.0610035,-0.0704757
2.53105,-0.0330808,-0.137576
2.51217,0.0584651,-0.160914
2.50954,-0.1251,-0.204988
2.47854,-0.0332598,-0.225541
2.47777,0.0571884,-0.249958
2.48591,-0.21582,-0.271601
2.44475,-0.0339586,-0.313513
2.43675,-0.213308,-0.357147
2.41572,-0.122832,-0.376705
2.3902,-0.0341606,-0.395864
2.38349,-0.211581,-0.440122
2.36781,-0.121681,-0.459231
2.32369,0.0520091,-0.497898
2.30176,-0.0351469,-0.559302
2.25958,-0.0345028,-0.641006
2.66677,0.0493246,0.121771
2.6371,-0.0478897,0.0493079
2.61547,0.046869,0.0237417
2.58114,-0.0482704,-0.0460534
2.56863,0.0452673,-0.0705032
2.54677,-0.0489172,-0.138444
2.50949,0.0429983,-0.160722
2.53262,-0.234471,-0.182585
2.50773,-0.14044,-0.204907
2.48028,-0.0485061,-0.225722
2.48652,-0.231253,-0.271817
2.44747,-0.0490182,-0.313895
2.4413,-0.22881,-0.358014
2.41788,-0.137821,-0.377166
2.40277,-0.0490879,-0.397988
2.37823,-0.22583,-0.439398
2.368,-0.136263,-0.459422
2.33472,0.0379249,-0.500202
2.30636,-0.0493735,-0.560482
2.28715,0.0371922,-0.580642
2.26318,-0.0484491,-0.642098
2.66802,0.0329731,0.121817
2.63376,-0.0639969,0.0492518
2.61771,0.0308435,0.0237599
2.58079,-0.064107,-0.0460534
2.57586,0.029586,-0.0706952
2.56159,-0.157613,-0.114835
2.54343,-0.064467,-0.138281
2.50871,0.0275886,-0.160658
2.53809,-0.250693,-0.183086
2.50881,-0.155948,-0.20507
2.47629,0.0267566,-0.249757
2.44613,-0.0640087,-0.313767
2.43198,-0.242998,-0.356858
2.41798,-0.152717,-0.37732
2.37778,-0.240517,-0.439579
2.36516,-0.150666,-0.459041
2.35469,-0.0636722,-0.480226
2.33393,0.0235888,-0.499993
2.3099,-0.0636312,-0.561427
2.28055,0.0230891,-0.57892
2.26284,-0.0623348,-0.642098
2.63132,-0.0800954,0.0492144
2.62085,0.0147978,0.0237871
2.58235,-0.0800032,-0.046089
2.565,0.0137214,-0.0703934
2.56954,-0.173935,-0.115238
2.53999,-0.0799777,-0.138118
2.50983,0.0121997,-0.160722
2.51476,-0.171814,-0.205639
2.4784,0.0115711,-0.249958
2.45164,-0.0792089,-0.31453
2.43241,-0.258125,-0.357147
2.42094,-0.167824,-0.377936
2.37821,-0.255312,-0.439941
2.36223,-0.165038,-0.458661
2.3474,-0.0778916,-0.478828
2.30364,-0.077607,-0.56001
2.25953,-0.0761209,-0.641279
2.62089,-0.00128367,0.0237871
2.56403,-0.00201658,-0.070366
2.56643,-0.189551,-0.115148
2.53945,-0.0955613,-0.138118
2.51185,-0.00320307,-0.16085
2.5368,-0.28204,-0.183229
2.51764,-0.187537,-0.205964
2.47445,-0.00363043,-0.249556
2.44813,-0.094136,-0.314149
2.43471,-0.273486,-0.357725
2.42085,-0.182749,-0.37809
2.40441,-0.0934216,-0.398478
2.38636,-0.00491729,-0.41975
2.36215,-0.179604,-0.458851
2.35862,-0.0927556,-0.481225
2.33013,-0.00504544,-0.499155
2.33263,-0.179161,-0.544376
2.30603,-0.0918564,-0.560718
2.28164,-0.00490061,-0.579166
2.61284,-0.0173121,0.0237145
2.56897,-0.0177838,-0.0705032
2.56124,-0.204976,-0.11497
2.53982,-0.111185,-0.138173
2.51678,-0.0186524,-0.161169
2.538,-0.297949,-0.183444
2.48232,-0.109536,-0.226085
2.48035,-0.0188587,-0.250158
2.44553,-0.109067,-0.313895
2.4348,-0.0197873,-0.336309
2.43593,-0.28877,-0.358159
2.42067,-0.19768,-0.378244
2.40577,-0.108262,-0.398805
2.38825,-0.0195758,-0.420096
2.36786,-0.194658,-0.460182
2.35801,-0.107226,-0.481225
2.3064,-0.106049,-0.560955
2.28641,-0.0189405,-0.580396
2.61468,-0.0333694,0.0237327
2.57081,-0.0335724,-0.070558
2.56192,-0.220859,-0.115059
2.54407,-0.127016,-0.138444
2.51562,-0.0340812,-0.161105
2.53513,-0.313394,-0.183372
2.5211,-0.218936,-0.206452
2.48217,-0.0341048,-0.250359
2.44778,-0.124222,-0.314276
2.43464,-0.0347266,-0.336309
2.43313,-0.303589,-0.358014
2.41941,-0.21253,-0.378244
2.39006,-0.0342577,-0.420443
2.36173,-0.208751,-0.459231
2.35535,-0.121591,-0.480825
2.30667,-0.120249,-0.561191
2.28625,-0.0329693,-0.580396
2.62942,-0.0496956,0.0238688
2.57955,-0.0495187,-0.0708049
2.57047,-0.237494,-0.115506
2.54324,-0.142624,-0.138444
2.52434,-0.0496929,-0.16168
2.5381,-0.329586,-0.18373
2.51971,-0.234401,-0.206452
2.48192,-0.0493344,-0.250359
2.49505,-0.325058,-0.273873
2.444,-0.139069,-0.313895
2.43438,-0.0496646,-0.336309
2.43417,-0.318898,-0.358448
2.41806,-0.227371,-0.378244
2.41017,-0.138115,-0.399785
2.3898,-0.0489222,-0.420443
2.36336,-0.13655,-0.482623
2.33844,-0.0481157,-0.50104
2.30589,-0.1344,-0.561191
2.286,-0.0469968,-0.580396
2.62907,-0.0658285,0.0238688
2.5772,-0.065295,-0.0707501
2.563,-0.252673,-0.115238
2.54232,-0.158226,-0.138444
2.52099,-0.0651037,-0.161489
2.54295,-0.346095,-0.184232
2.51922,-0.249956,-0.206533
2.48783,-0.155707,-0.22681
2.48455,-0.0646399,-0.25066
2.44112,-0.153938,-0.31364
2.437,-0.0646796,-0.336719
2.43315,-0.333962,-0.358592
2.41367,-0.241908,-0.377782
2.41124,-0.153026,-0.400112
2.35661,-0.150674,-0.481425
2.33908,-0.0624893,-0.50125
2.30308,-0.148422,-0.560718
2.62861,-0.0819589,0.0238688
2.57975,-0.0812015,-0.0708323
2.56339,-0.268603,-0.115327
2.5423,-0.173891,-0.138498
2.53152,-0.0809217,-0.162192
2.53979,-0.361551,-0.18416
2.51169,-0.264782,-0.206045
2.48013,-0.0797557,-0.250259
2.44706,-0.169393,-0.31453
2.43105,-0.348885,-0.358592
2.41214,-0.256713,-0.377782
2.39296,-0.078374,-0.421136
2.35076,-0.164788,-0.480426
2.33963,-0.0768726,-0.501459
2.57121,-0.0967284,-0.0706129
2.5607,-0.284216,-0.115282
2.54019,-0.189412,-0.138444
2.52499,-0.0962253,-0.161808
2.47761,-0.0948958,-0.250058
2.44894,-0.184629,-0.314912
2.35068,-0.179284,-0.480626
2.34009,-0.0912649,-0.501669
2.57756,-0.112809,-0.0708049
2.54893,-0.205799,-0.138987
2.52535,-0.111761,-0.161872
2.47399,-0.109964,-0.249757
2.45073,-0.199893,-0.315294
2.44232,-0.109837,-0.337677
2.41195,-0.197705,-0.400765
2.39379,-0.107822,-0.421482
2.33656,-0.105489,-0.50104
2.58581,-0.129071,-0.0710518
2.54364,-0.221089,-0.13877
2.53658,-0.127857,-0.162639
2.49219,-0.217494,-0.227625
2.48122,-0.125544,-0.25056
2.49176,-0.40271,-0.274739
2.45539,-0.215447,-0.316057
2.44358,-0.124922,-0.337951
2.40381,-0.211895,-0.399622
2.33587,-0.119824,-0.50104
2.58596,-0.144991,-0.0710793
2.54721,-0.237155,-0.139041
2.52678,-0.142911,-0.162064
2.4814,-0.140823,-0.25066
2.45994,-0.231066,-0.31682
2.44079,-0.1398,-0.337677
2.40149,-0.226547,-0.399458
2.34387,-0.134659,-0.502925
2.57206,-0.160048,-0.0707226
2.5467,-0.252879,-0.139095
2.53183,-0.158787,-0.162447
2.48645,-0.15642,-0.251262
2.45848,-0.246155,-0.31682
2.40201,-0.241476,-0.399785
2.39828,-0.152303,-0.422695
2.33715,-0.148666,-0.501669
2.57302,-0.175964,-0.0707775
2.54808,-0.268814,-0.139258
2.48842,-0.17188,-0.251563
2.4658,-0.262179,-0.317964
2.44482,-0.170154,-0.338498
2.40147,-0.256314,-0.399948
2.52471,-0.189471,-0.162128
2.52265,-0.376059,-0.208078
2.48632,-0.18707,-0.251463
2.4857,-0.372058,-0.298057
2.44373,-0.185152,-0.338498
2.40377,-0.271488,-0.400602
2.53842,-0.206171,-0.163086
2.48513,-0.202323,-0.251463
2.43959,-0.199901,-0.338088
2.40794,-0.286932,-0.401582
2.40096,-0.196904,-0.423734
2.54308,-0.222264,-0.16347
2.48582,-0.217741,-0.251664
2.48487,-0.40317,-0.298528
2.45367,-0.306661,-0.317074
2.44719,-0.215649,-0.339319
2.41201,-0.302438,-0.402562
2.39676,-0.211373,-0.423215
2.53769,-0.237492,-0.163214
2.48939,-0.233454,-0.252165
2.48626,-0.419069,-0.299
2.46157,-0.323001,-0.318346
2.44089,-0.230195,-0.338635
2.40424,-0.31646,-0.401582
2.39542,-0.226075,-0.423215
2.52824,-0.252266,-0.162703
2.48296,-0.248229,-0.251664
2.4566,-0.337694,-0.317964
2.39105,-0.240473,-0.422695
2.53756,-0.268931,-0.163406
2.48535,-0.26388,-0.252065
2.47019,-0.355019,-0.319999
2.53884,-0.28483,-0.163598
2.49061,-0.279903,-0.252767
2.46698,-0.370022,-0.319872
2.45101,-0.276752,-0.340687
2.53804,-0.30052,-0.163661
2.48983,-0.295297,-0.252868
2.46858,-0.385764,-0.320381
2.44533,-0.291317,-0.34014
2.38719,-0.28456,-0.422868
2.53812,-0.316334,-0.163789
2.48896,-0.310692,-0.252968
2.45736,-0.399472,-0.319236
2.45234,-0.307425,-0.341371
2.48997,-0.326346,-0.253269
2.45041,-0.322467,-0.341371
2.49679,-0.342836,-0.254172
2.45722,-0.338713,-0.342603
2.49661,-0.358432,-0.254373
2.45215,-0.35336,-0.342192
2.49239,-0.37345,-0.254172
2.44308,-0.367369,-0.341235
2.4989,-0.390117,-0.255075
2.50334,-0.406559,-0.255778
2.49393,-0.420753,-0.255075
