2.44841,0.79033,-0.280041
2.43615,0.7699,-0.278093
2.43798,0.754056,-0.277769
2.42907,0.749399,-0.371162
2.43268,0.734194,-0.371017
2.43144,0.717573,-0.37015
2.41584,0.696881,-0.367116
2.44905,0.78887,-0.305123
2.42007,0.682045,-0.367116
2.41371,0.664295,-0.365527
2.41201,0.647932,-0.36466
2.4211,0.746133,-0.394555
2.39435,0.640053,-0.45586
2.42216,0.732846,-0.206452
2.42184,0.730123,-0.39394
2.39157,0.623613,-0.454594
2.42278,0.716839,-0.206127
2.40252,0.613874,-0.36206
2.4168,0.712455,-0.392401
2.38964,0.607473,-0.453508
2.40226,0.60921,-0.551833
2.42139,0.700298,-0.205639
2.40644,0.600999,-0.269978
2.3976,0.59697,-0.360759
2.39141,0.592326,-0.453146
2.42277,0.684614,-0.205395
2.43132,0.782343,-0.327503
2.39064,0.579682,-0.35917
2.40349,0.676586,-0.388862
2.38544,0.575335,-0.451338
2.42404,0.66894,-0.205151
2.43229,0.766218,-0.326995
2.38837,0.563639,-0.358303
2.40188,0.660254,-0.387938
2.38318,0.559339,-0.450252
2.41174,0.649647,-0.203769
2.3919,0.550802,-0.267164
2.42367,0.747188,-0.325214
2.38214,0.54676,-0.356858
2.40016,0.643968,-0.387015
2.38081,0.543393,-0.449167
2.41568,0.634837,-0.203769
2.38845,0.534595,-0.266407
2.42631,0.73173,-0.32496
2.38835,0.532779,-0.357292
2.40024,0.628228,-0.386399
2.37738,0.527284,-0.4479
2.36913,0.521292,-0.636806
2.39241,0.523413,0.00324848
2.42695,0.715706,-0.324451
2.39352,0.610801,-0.384707
2.36903,0.510202,-0.44573
2.38516,0.607293,-0.476726
2.41986,0.697505,-0.322925
2.37437,0.499155,-0.354258
2.38571,0.593241,-0.38286
2.37404,0.496058,-0.446092
2.43495,0.783915,-0.257985
2.41837,0.681031,-0.322162
2.37254,0.483589,-0.353535
2.38547,0.577662,-0.382245
2.40283,0.675614,-0.413345
2.3674,0.47953,-0.444283
2.37907,0.57475,-0.474064
2.43307,0.766866,-0.257283
2.41772,0.664864,-0.321526
2.42281,0.762239,-0.350812
2.36576,0.467105,-0.352091
2.37839,0.560521,-0.380552
2.40217,0.659552,-0.412529
2.36451,0.463858,-0.443197
2.37491,0.558344,-0.472542
2.38591,0.551948,-0.0201745
2.40563,0.647804,-0.135405
2.39949,0.645254,-0.226085
2.43392,0.75075,-0.256882
2.41409,0.64796,-0.320508
2.42744,0.747359,-0.350812
2.36664,0.452209,-0.351802
2.376,0.544592,-0.379629
2.39855,0.642757,-0.411222
2.36538,0.448975,-0.442835
2.37446,0.542886,-0.471782
2.39672,0.641055,-0.505796
2.37487,0.445343,0.0915566
2.3873,0.53686,-0.020158
2.40666,0.63227,-0.135242
2.40148,0.630013,-0.225904
2.42801,0.732639,-0.255778
2.40171,0.628864,-0.318346
2.42914,0.731593,-0.350402
2.36256,0.436421,-0.35079
2.3793,0.530003,-0.379629
2.39195,0.625283,-0.409424
2.36035,0.433033,-0.441388
2.372,0.527029,-0.470641
2.38923,0.623368,-0.503398
2.38957,0.521988,-0.0201498
2.39792,0.61427,-0.134537
2.40144,0.614279,-0.225541
2.42673,0.716038,-0.255176
2.4036,0.613625,-0.318092
2.42028,0.712757,-0.348486
2.35252,0.419657,-0.348912
2.37382,0.513514,-0.378244
2.39574,0.610595,-0.409424
2.35812,0.417684,-0.440484
2.37039,0.511429,-0.46969
2.39206,0.608455,-0.503199
2.38881,0.506486,-0.0201169
2.39971,0.599062,-0.134428
2.39453,0.596883,-0.224544
2.4177,0.697275,-0.253771
2.39192,0.595034,-0.316057
2.41889,0.696249,-0.347665
2.34823,0.40404,-0.347901
2.36338,0.496097,-0.376089
2.39083,0.593743,-0.407954
2.36675,0.495467,-0.468359
2.359,0.395957,0.00317287
2.386,0.490611,-0.0200674
2.39848,0.583147,-0.134157
2.38944,0.580065,-0.223729
2.41235,0.679729,-0.252767
2.38974,0.578945,-0.315294
2.35359,0.39011,-0.348334
2.36057,0.480404,-0.375166
2.38292,0.576279,-0.405993
2.4016,0.675162,-0.438806
2.35434,0.387278,-0.438856
2.36398,0.479764,-0.467218
2.35842,0.380996,0.00316889
2.38933,0.566693,-0.043806
2.40007,0.567959,-0.134048
2.41691,0.665532,-0.16053
2.37771,0.471174,-0.197751
2.38811,0.564247,-0.223276
2.40688,0.662274,-0.251764
2.38263,0.561767,-0.313895
2.40433,0.660218,-0.344381
2.35106,0.374882,-0.347612
2.3596,0.465146,-0.37455
2.37777,0.559613,-0.404523
2.40095,0.65911,-0.43794
2.34793,0.371442,-0.437228
2.3611,0.464114,-0.466077
2.37328,0.557377,-0.497006
2.37567,0.556669,-0.592827
2.38984,0.551347,-0.0437525
2.39378,0.550982,-0.133505
2.4036,0.646027,-0.15938
2.38182,0.547353,-0.22237
2.40321,0.645429,-0.250961
2.35028,0.361707,-0.258833
2.3812,0.546028,-0.313259
2.40068,0.643401,-0.343287
2.33766,0.358052,-0.3453
2.35756,0.449733,-0.373781
2.3725,0.543032,-0.403053
2.39353,0.641306,-0.435861
2.33946,0.355403,-0.435238
2.35618,0.44815,-0.464556
2.37283,0.541932,-0.496207
2.36862,0.539707,-0.59023
2.34122,0.351342,0.176388
2.38634,0.535141,-0.0436276
2.38932,0.534539,-0.133071
2.40269,0.630001,-0.15906
2.37058,0.439598,-0.196694
2.40424,0.629914,-0.25066
2.38063,0.530544,-0.31275
2.39979,0.627406,-0.342603
2.3359,0.343126,-0.344722
2.35444,0.434184,-0.372858
2.37097,0.527393,-0.402236
2.39361,0.625612,-0.435168
2.33576,0.340191,-0.434152
2.35503,0.432974,-0.463795
2.36846,0.525664,-0.494609
2.37093,0.524953,-0.589994
2.34333,0.33697,0.176388
2.34722,0.334978,0.00314501
2.38567,0.519638,-0.0435563
2.38768,0.518809,-0.1328
2.40168,0.61401,-0.158741
2.3644,0.423463,-0.195963
2.36792,0.51365,-0.220467
2.40613,0.614658,-0.250459
2.34372,0.331307,-0.257642
2.37996,0.515088,-0.312241
2.39784,0.611201,-0.341782
2.3311,0.327822,-0.343711
2.34733,0.417997,-0.371319
2.37031,0.512002,-0.401582
2.39168,0.609454,-0.434129
2.33683,0.325717,-0.433971
2.35087,0.417315,-0.462464
2.36781,0.510296,-0.49381
2.36936,0.509375,-0.588813
2.34042,0.321906,0.176017
2.34526,0.320028,0.00313971
2.38295,0.503749,-0.0434493
2.40815,0.601199,-0.0681165
2.38593,0.503118,-0.132529
2.35517,0.406911,-0.194987
2.36518,0.49788,-0.219923
2.40117,0.597719,-0.249556
2.37725,0.499252,-0.311478
2.38904,0.593373,-0.340003
2.32817,0.312854,-0.342989
2.34693,0.403084,-0.370857
2.36761,0.496234,-0.400602
2.39155,0.593818,-0.433436
2.32319,0.309296,-0.431077
2.35436,0.403048,-0.462654
2.36706,0.494955,-0.493011
2.33444,0.306501,0.175422
2.34233,0.30658,0.0895119
2.36487,0.397479,0.0677374
2.38373,0.489999,0.0454948
2.3811,0.488114,-0.0433601
2.40209,0.58405,-0.0678421
2.38115,0.486869,-0.132094
2.35172,0.39147,-0.194499
2.39512,0.580631,-0.248553
2.35412,0.390435,-0.282984
2.37541,0.483666,-0.310842
2.38494,0.576839,-0.338909
2.3271,0.298185,-0.342555
2.34449,0.38787,-0.370088
2.36578,0.480715,-0.399785
2.38366,0.576355,-0.431357
2.31821,0.294169,-0.429811
2.34613,0.386838,-0.460562
2.36333,0.479059,-0.491613
2.35257,0.475639,-0.583147
2.36308,0.477762,-0.683849
2.33133,0.291552,0.175051
2.33623,0.291213,0.089209
2.38375,0.474777,0.0454388
2.37723,0.470891,-0.131715
2.35113,0.37656,-0.194255
2.35255,0.375357,-0.282513
2.37444,0.468314,-0.310333
2.39036,0.562649,-0.339182
2.32299,0.283183,-0.341688
2.33414,0.371458,-0.368087
2.36868,0.46619,-0.399785
2.37661,0.559237,-0.429451
2.31314,0.279114,-0.428545
2.34167,0.371358,-0.459231
2.36238,0.463794,-0.490813
2.35831,0.461755,-0.583855
2.36313,0.462699,-0.683031
2.32911,0.276771,0.174753
2.33301,0.276285,0.0890197
2.35871,0.366739,0.0674268
2.35285,0.364524,-0.0196143
2.39754,0.550641,-0.157527
2.35044,0.361672,-0.194011
2.38558,0.547412,-0.246847
2.38701,0.546424,-0.338224
2.3178,0.268128,-0.340677
2.32856,0.355935,-0.366856
2.36084,0.449617,-0.397988
2.37808,0.544204,-0.429105
2.31188,0.26458,-0.428002
2.33711,0.355948,-0.4579
2.36133,0.448558,-0.490014
2.35251,0.445648,-0.581731
2.36214,0.447474,-0.681939
2.32581,0.261917,0.174382
2.33998,0.350096,0.153502
2.3287,0.261296,0.0887925
2.33253,0.260159,0.00311318
2.3501,0.349345,-0.0195732
2.36909,0.439135,-0.130955
2.34374,0.345934,-0.193279
2.35025,0.434794,-0.217476
2.37919,0.530599,-0.245844
2.32412,0.256101,-0.254504
2.36538,0.436441,-0.308426
2.38355,0.530261,-0.337267
2.31547,0.25347,-0.340099
2.33559,0.342357,-0.367626
2.34997,0.432622,-0.395701
2.36887,0.526823,-0.426853
2.31052,0.250072,-0.427459
2.33245,0.340608,-0.456569
2.35922,0.433176,-0.489016
2.35424,0.43103,-0.581495
2.35917,0.431932,-0.680302
2.32143,0.247008,0.173936
2.33813,0.335165,0.153243
2.32728,0.246687,0.0886789
2.34923,0.334496,-0.0195484
2.36388,0.423183,-0.130521
2.33989,0.330709,-0.192791
2.34699,0.419314,-0.216933
2.37948,0.515358,-0.245543
2.32169,0.241424,-0.254071
2.34946,0.418613,-0.306009
2.38095,0.514371,-0.336446
2.31501,0.239055,-0.33981
2.33373,0.32747,-0.36701
2.35938,0.419403,-0.396844
2.37206,0.512278,-0.426853
2.30321,0.234992,-0.425831
2.35122,0.416811,-0.486818
2.34727,0.414885,-0.579134
2.31595,0.232063,0.173416
2.3352,0.320135,0.152919
2.39018,0.504782,0.0221717
2.34232,0.318861,-0.0194743
2.36638,0.409896,-0.0428428
2.36348,0.408161,-0.130358
2.38579,0.501897,-0.156121
2.33892,0.315945,-0.192548
2.37189,0.498497,-0.244439
2.31917,0.226787,-0.253639
2.33743,0.314333,-0.279686
2.34221,0.40251,-0.304737
2.36952,0.496704,-0.334393
2.31447,0.224654,-0.339521
2.32198,0.311306,-0.364856
2.34926,0.402751,-0.39472
2.36745,0.496097,-0.425467
2.30461,0.220855,-0.425831
2.32575,0.310531,-0.454477
2.34891,0.401551,-0.485819
2.34403,0.399495,-0.577717
2.30843,0.217581,0.258277
2.31435,0.217569,0.173193
2.33416,0.305412,0.152725
2.34849,0.394414,0.131389
2.32417,0.21755,0.0884517
2.3442,0.305769,0.0667774
2.3617,0.395488,0.0447659
2.33828,0.30371,-0.0194249
2.36195,0.394216,-0.042718
2.38376,0.48743,-0.0667722
2.35215,0.391357,-0.129598
2.37709,0.484855,-0.155354
2.33686,0.301079,-0.192222
2.34312,0.389014,-0.216117
2.36905,0.482742,-0.243837
2.31755,0.21228,-0.253314
2.33636,0.299606,-0.279333
2.33974,0.387321,-0.304101
2.36669,0.480972,-0.333572
2.29806,0.208837,-0.336921
2.32385,0.297053,-0.364856
2.34585,0.387365,-0.39374
2.36272,0.479993,-0.424081
2.29906,0.206096,-0.424565
2.31982,0.295263,-0.452956
2.34359,0.385857,-0.484221
2.33588,0.383374,-0.57512
2.34488,0.384851,-0.674025
2.3117,0.203587,0.258498
2.30869,0.202753,0.172673
2.32509,0.289727,0.152013
2.35086,0.379997,0.131389
2.3381,0.290394,0.0665515
2.35717,0.379876,0.044635
2.33712,0.288989,-0.0194002
2.35642,0.378448,-0.0425753
2.34957,0.376128,-0.129327
2.30954,0.198239,-0.166403
2.3347,0.286249,-0.191897
2.33661,0.373216,-0.215302
2.36221,0.46627,-0.242833
2.33522,0.371865,-0.303211
2.36863,0.466249,-0.333436
2.29536,0.194398,-0.336343
2.31974,0.282073,-0.363932
2.34039,0.371725,-0.392433
2.36659,0.465677,-0.424254
2.29832,0.191821,-0.424203
2.30892,0.279489,-0.450484
2.3372,0.370091,-0.482424
2.35158,0.462468,-0.513399
2.33723,0.368883,-0.574884
2.34625,0.370306,-0.673753
2.31173,0.190277,0.344549
2.30399,0.188669,0.257502
2.31088,0.188665,0.172747
2.32385,0.275103,0.151818
2.35217,0.365411,0.131334
2.33487,0.275457,0.0664103
2.35056,0.364028,0.0444668
2.33587,0.274293,-0.0193754
2.35277,0.363067,-0.0424683
2.35184,0.361704,-0.129327
2.33246,0.271458,-0.191572
2.36014,0.450834,-0.242332
2.30908,0.18296,-0.252124
2.33745,0.357529,-0.303211
2.36366,0.450224,-0.332341
2.29749,0.180388,-0.336487
2.31162,0.266702,-0.362394
2.33872,0.356763,-0.39178
2.3665,0.450594,-0.423734
2.29553,0.177412,-0.423479
2.30571,0.264757,-0.449533
2.33653,0.355301,-0.481824
2.33561,0.353952,-0.57394
2.33992,0.354605,-0.671297
2.3099,0.175864,0.344108
2.3061,0.174603,0.257612
2.32139,0.261116,0.236832
2.29907,0.173506,0.171781
2.31955,0.260171,0.15143
2.35239,0.350678,0.131223
2.33056,0.260459,0.0662409
2.37334,0.440678,0.0219085
2.31161,0.171977,0.00307471
2.33155,0.259292,-0.019326
2.34507,0.34716,-0.0422899
2.35006,0.346684,-0.12911
2.32219,0.255831,-0.190596
2.3282,0.342629,-0.214124
2.36188,0.436163,-0.242231
2.34157,0.343468,-0.303465
2.36053,0.434636,-0.33152
2.2956,0.166073,-0.336054
2.31124,0.252298,-0.362086
2.33697,0.341835,-0.391126
2.36438,0.435174,-0.422868
2.28382,0.162417,-0.421128
2.33575,0.340534,-0.481225
2.33101,0.338637,-0.572287
2.34122,0.4307,-0.604262
2.32872,0.338305,-0.667476
2.30995,0.161618,0.343961
2.29622,0.159691,0.256395
2.32393,0.246972,0.236933
2.2981,0.159258,0.171633
2.31614,0.245408,0.151106
2.34856,0.33539,0.130893
2.32813,0.245734,0.0661279
2.3691,0.424871,0.0218449
2.30863,0.157518,0.00306941
2.34517,0.332483,-0.0422542
2.34423,0.33114,-0.128675
2.32074,0.241268,-0.190352
2.32829,0.328059,-0.213942
2.35668,0.420266,-0.241429
2.33086,0.327301,-0.301812
2.35145,0.418063,-0.329878
2.28769,0.151397,-0.334753
2.3098,0.237808,-0.361624
2.33413,0.326805,-0.390309
2.35731,0.418935,-0.421136
2.28772,0.148592,-0.42167
2.30195,0.235742,-0.448202
2.32615,0.32457,-0.478828
2.33948,0.415514,-0.509
2.3263,0.323391,-0.570634
2.34191,0.415987,-0.60377
2.30892,0.147316,0.343667
2.29517,0.145473,0.256173
2.29904,0.145154,0.171633
2.34761,0.320568,0.130728
2.36315,0.410256,0.109503
2.34002,0.318409,0.0441491
2.36674,0.409474,0.0217996
2.32261,0.229481,-0.0192272
2.34122,0.317282,-0.0421472
2.33929,0.315815,-0.128296
2.36134,0.40663,-0.153437
2.3192,0.226733,-0.190108
2.32236,0.312703,-0.213218
2.35039,0.404279,-0.240525
2.29717,0.139523,-0.250501
2.32103,0.31141,-0.300286
2.34909,0.40279,-0.329194
2.28857,0.137357,-0.334753
2.30827,0.223346,-0.361163
2.33316,0.312085,-0.389819
2.35401,0.403465,-0.420096
2.28172,0.134148,-0.420404
2.29749,0.221049,-0.447061
2.31547,0.308608,-0.476231
2.33813,0.400491,-0.508162
2.32535,0.308727,-0.569926
2.33773,0.400464,-0.602047
2.30287,0.132747,0.342638
2.29106,0.131104,0.25562
2.32727,0.304454,0.215792
2.29292,0.130648,0.171113
2.33963,0.304867,0.130177
2.30366,0.130332,0.0874293
2.32301,0.216404,0.0659021
2.36033,0.393465,0.0217179
2.29941,0.128562,0.00305481
2.318,0.214672,-0.0191777
2.34015,0.302526,-0.0420937
2.31983,0.213902,-0.104241
2.33624,0.300818,-0.128024
2.30864,0.211408,-0.189132
2.32226,0.298194,-0.213036
2.34301,0.388224,-0.239522
2.296,0.125317,-0.250284
2.31218,0.210349,-0.275329
2.31994,0.296785,-0.299904
2.35054,0.388208,-0.329057
2.28344,0.122992,-0.333887
2.30074,0.208376,-0.359778
2.32916,0.297014,-0.388839
2.35061,0.38805,-0.419057
2.28053,0.120042,-0.420042
2.29783,0.20686,-0.446871
2.32413,0.295259,-0.477629
2.32624,0.294331,-0.56969
2.3344,0.385166,-0.600571
2.3231,0.293934,-0.664202
2.29672,0.118259,0.34161
2.30791,0.203562,0.320998
2.28686,0.11679,0.255066
2.30826,0.202416,0.234915
2.32415,0.289553,0.215334
2.29069,0.116424,0.17089
2.30535,0.201431,0.150135
2.33452,0.289645,0.129791
2.3548,0.377708,0.0216453
2.29516,0.114202,0.00304818
2.31629,0.200187,-0.019153
2.33303,0.287062,-0.0419332
2.3561,0.377199,-0.0654829
2.33308,0.28587,-0.127753
2.35728,0.376206,-0.152861
2.29236,0.111977,-0.164756
2.30393,0.196729,-0.188645
2.3191,0.283335,-0.212583
2.35124,0.37478,-0.240124
2.30749,0.195654,-0.274623
2.3168,0.281946,-0.299268
2.34212,0.372068,-0.327552
2.28119,0.108838,-0.333453
2.30197,0.194255,-0.359778
2.3231,0.281767,-0.387532
2.34711,0.372693,-0.418018
2.27337,0.105681,-0.418595
2.29025,0.192018,-0.44516
2.3152,0.279701,-0.475432
2.32125,0.27924,-0.568037
2.29543,0.104074,0.341316
2.31405,0.189802,0.321684
2.28654,0.102711,0.254955
2.3055,0.187926,0.234512
2.28737,0.102189,0.170593
2.30555,0.187201,0.15007
2.33526,0.275198,0.129736
2.2981,0.101744,0.0871643
2.33357,0.273884,0.0439248
2.35312,0.362643,0.021609
2.28782,0.0997685,0.00303757
2.3085,0.185251,-0.0190789
2.3268,0.271814,-0.0417905
2.35541,0.362279,-0.0654006
2.32388,0.27028,-0.127156
2.34573,0.359618,-0.151967
2.28703,0.0976542,-0.164326
2.29914,0.182117,-0.188157
2.3119,0.268068,-0.211768
2.35054,0.359894,-0.239823
2.32046,0.267952,-0.299523
2.33652,0.356495,-0.326458
2.27687,0.094633,-0.332731
2.30016,0.179896,-0.359316
2.31695,0.266605,-0.386225
2.34156,0.357097,-0.416632
2.27201,0.0916505,-0.418233
2.28747,0.177658,-0.444399
2.31326,0.26389,-0.565676
2.32458,0.354299,-0.596881
2.2901,0.0897554,0.340435
2.30925,0.175151,0.32086
2.28216,0.088487,0.254402
2.3076,0.173851,0.234613
2.28596,0.0880751,0.170444
2.29869,0.172454,0.149552
2.32996,0.260089,0.12935
2.28739,0.0856914,0.00303624
2.30959,0.171083,-0.0190789
2.32346,0.256982,-0.0417013
2.31042,0.170211,-0.10366
2.31557,0.254923,-0.126613
2.34592,0.344928,-0.151839
2.28459,0.0835101,-0.164112
2.29524,0.167643,-0.18775
2.31053,0.253552,-0.211496
2.34385,0.344163,-0.23892
2.31811,0.253278,-0.299014
2.33376,0.341434,-0.325774
2.27345,0.0805205,-0.332153
2.29827,0.165566,-0.358854
2.31266,0.251743,-0.385244
2.33397,0.341298,-0.414899
2.26565,0.0774727,-0.416967
2.28656,0.163479,-0.444019
2.31291,0.249483,-0.565204
2.32767,0.34017,-0.597127
2.28566,0.0755386,0.3397
2.31028,0.160978,0.32086
2.28564,0.0745795,0.254734
2.30465,0.159414,0.234209
2.31919,0.245675,0.214419
2.34919,0.335213,0.195137
2.28048,0.0738533,0.169998
2.29473,0.158003,0.149229
2.32655,0.245264,0.129075
2.30967,0.158101,0.0653938
2.3465,0.332197,0.0215091
2.28588,0.071592,0.00303359
2.30461,0.156502,-0.0190295
2.31803,0.241994,-0.0415765
2.31809,0.240813,-0.126667
2.3391,0.329275,-0.151264
2.29623,0.153557,-0.18775
2.34099,0.329083,-0.238418
2.31173,0.238236,-0.297996
2.33189,0.326559,-0.325226
2.27193,0.0665115,-0.331864
2.28938,0.150811,-0.357316
2.31219,0.237346,-0.384918
2.33504,0.326834,-0.414726
2.271,0.0637074,-0.417872
2.28066,0.148998,-0.442688
2.30436,0.235444,-0.472236
2.31053,0.234893,-0.56426
2.32108,0.324672,-0.594912
2.31143,0.234985,-0.659017
2.31674,0.324107,-0.690223
2.28213,0.0614062,0.339112
2.30529,0.146423,0.320037
2.28009,0.0603958,0.25407
2.29864,0.144832,0.233503
2.31372,0.230748,0.213778
2.34034,0.31931,0.194236
2.2779,0.0597807,0.169775
2.29466,0.143858,0.149164
2.32205,0.230393,0.128744
2.28227,0.0574641,0.00302828
2.29755,0.141865,-0.0189636
2.31549,0.227375,-0.0415051
2.31455,0.2261,-0.126396
2.34009,0.314783,-0.1512
2.29116,0.139102,-0.187262
2.30256,0.224117,-0.210499
2.33705,0.313918,-0.237816
2.3092,0.223665,-0.297488
2.32305,0.310799,-0.323721
2.26438,0.0523868,-0.330708
2.28829,0.136643,-0.357008
2.30477,0.222302,-0.383447
2.32626,0.311064,-0.412821
2.25856,0.0494915,-0.41552
2.28447,0.135175,-0.443258
2.30283,0.22102,-0.471636
2.31543,0.309368,-0.500412
2.30419,0.219973,-0.562371
2.32206,0.310296,-0.594666
2.27455,0.0472379,0.337937
2.30318,0.132105,0.319625
2.2685,0.0461616,0.252741
2.30047,0.130781,0.233604
2.34226,0.304944,0.194236
2.27224,0.0456824,0.16933
2.29152,0.12955,0.148905
2.31944,0.21577,0.128524
2.3385,0.301841,0.0214002
2.28158,0.0434402,0.00302696
2.28939,0.127265,-0.0188894
2.31187,0.212705,-0.0414159
2.30695,0.211075,-0.125908
2.29097,0.124987,-0.187181
2.29993,0.209623,-0.210137
2.33104,0.298561,-0.237013
2.29555,0.123871,-0.272621
2.29769,0.208327,-0.295834
2.32983,0.297166,-0.324405
2.26169,0.0384414,-0.330275
2.28711,0.122494,-0.3567
2.29921,0.207535,-0.382304
2.3252,0.296411,-0.412301
2.26177,0.0356788,-0.416063
2.27349,0.120531,-0.440976
2.29243,0.205834,-0.469239
2.31534,0.294908,-0.499993
2.29485,0.20488,-0.559774
2.31815,0.295307,-0.59319
2.27282,0.0332517,0.337643
2.29801,0.117666,0.318802
2.29527,0.116361,0.232999
2.34409,0.290567,0.194236
2.2655,0.0316418,0.168809
2.2833,0.115035,0.148322
2.31774,0.201275,0.128359
2.33634,0.286999,0.0213639
2.27881,0.0294011,0.00302298
2.28813,0.113117,-0.0188729
2.31014,0.198259,-0.0413624
2.30322,0.196492,-0.125636
2.2907,0.110879,-0.1871
2.3269,0.28353,-0.236411
2.29596,0.193975,-0.295453
2.26287,0.024574,-0.330419
2.28091,0.108131,-0.355623
2.29651,0.193093,-0.38165
2.3172,0.280953,-0.410569
2.25605,0.0217433,-0.414977
2.27713,0.106717,-0.441547
2.29072,0.191519,-0.46864
2.30934,0.279755,-0.498317
2.29025,0.190313,-0.558358
2.31992,0.281078,-0.59319
2.3029,0.191364,-0.655469
2.31374,0.28037,-0.687676
2.27676,0.0198144,0.424045
2.28879,0.103118,0.317429
2.29097,0.102054,0.232495
2.33395,0.27478,0.193252
2.26066,0.0177013,0.168438
2.30997,0.186328,0.127863
2.29588,0.100627,0.0649138
2.28278,0.0988153,-0.0188235
2.30932,0.183922,-0.0413268
2.33338,0.271411,-0.0644679
2.29941,0.181962,-0.125365
2.33161,0.270049,-0.150305
2.28337,0.096485,-0.186449
2.31772,0.26799,-0.235307
2.28919,0.179264,-0.294435
2.32051,0.267081,-0.322627
2.25902,0.0106701,-0.329841
2.26969,0.0936449,-0.353776
2.29667,0.178922,-0.381487
2.31496,0.266279,-0.409876
2.25024,0.0078794,-0.413892
2.27284,0.0925432,-0.440596
2.28502,0.176931,-0.467242
2.29234,0.176331,-0.558594
2.30812,0.265288,-0.589746
2.30208,0.264634,-0.683714
2.28146,0.0887641,0.316332
2.3063,0.174346,0.29797
2.263,0.00438662,0.252077
2.28957,0.0879188,0.232293
2.32866,0.259681,0.192678
2.25973,0.00382813,0.168364
2.3051,0.171705,0.127532
2.273,0.00143065,0.00301502
2.28135,0.0847323,-0.018807
2.3114,0.169822,-0.0413446
2.32805,0.256323,-0.0642758
2.29849,0.167704,-0.125256
2.28292,0.0824367,-0.186368
2.3213,0.25398,-0.235508
2.28926,0.165143,-0.294308
2.31521,0.252087,-0.321669
2.26003,-0.00319259,-0.329986
2.27318,0.0798206,-0.354238
2.29772,0.164826,-0.381487
2.31264,0.251644,-0.409183
2.25025,-0.00592796,-0.413892
2.29095,0.163255,-0.46824
2.29338,0.162262,-0.558594
2.26019,-0.00854046,0.335733
2.27999,0.0746988,0.316057
2.30634,0.160122,0.297842
2.25603,-0.00946977,0.251302
2.28708,0.0737724,0.23199
2.29884,0.158231,0.211855
2.3312,0.245492,0.19276
2.25672,-0.0100241,0.168141
2.30113,0.157218,0.127257
2.26896,-0.0124942,0.00300971
2.27883,0.0706397,-0.0187823
2.30442,0.1551,-0.0412019
2.32461,0.241517,-0.0641387
2.29848,0.153531,-0.125202
2.31291,0.239158,-0.148899
2.28139,0.0683677,-0.186205
2.31391,0.238813,-0.234605
2.28231,0.150571,-0.29329
2.31375,0.237573,-0.321258
2.25107,-0.0169926,-0.328685
2.26869,0.0657281,-0.353469
2.29475,0.150466,-0.380833
2.3063,0.236645,-0.407797
2.24722,-0.0197092,-0.413349
2.27446,0.0605495,0.315234
2.29441,0.145154,0.296181
2.31505,0.231029,0.277177
2.27953,0.05953,0.231183
2.29381,0.143749,0.211306
2.32572,0.230495,0.192187
2.30105,0.143034,0.127202
2.26384,-0.0263579,0.00300308
2.27822,0.0566309,-0.0187741
2.29734,0.140469,-0.0410592
2.32406,0.227054,-0.0640838
2.30037,0.139485,-0.125256
2.31036,0.224576,-0.148644
2.27978,0.0543206,-0.186043
2.31038,0.22413,-0.234103
2.30629,0.222515,-0.320027
2.24993,-0.030791,-0.328541
2.26115,0.051626,-0.352237
2.28677,0.135857,-0.379363
2.30673,0.222395,-0.407623
2.24115,-0.0334095,-0.412264
2.27517,0.134092,-0.464645
2.29229,0.133936,-0.557885
2.29526,0.131073,0.296181
2.31543,0.216727,0.277059
2.25177,-0.0370885,0.250859
2.26891,0.0453233,0.230074
2.29862,0.129896,0.211672
2.31915,0.215483,0.191531
2.24845,-0.0375835,0.167546
2.30189,0.128912,0.127202
2.26164,-0.0402125,0.00300043
2.27552,0.0425948,-0.0187494
2.29517,0.126205,-0.0410057
2.31467,0.210667,-0.148835
2.27923,0.123374,-0.20769
2.30676,0.2095,-0.233602
2.28003,0.122339,-0.292782
2.30367,0.208004,-0.31948
2.24475,-0.0444977,-0.327819
2.25648,0.0376684,-0.351468
2.28854,0.121875,-0.379526
2.30216,0.207706,-0.406584
2.23501,-0.0470362,-0.411178
2.25872,0.0364834,-0.437553
2.27693,0.120181,-0.464845
2.28142,0.11926,-0.555052
2.2956,0.206911,-0.585071
2.29602,0.116987,0.296181
2.31177,0.202084,0.276467
2.26816,0.0313869,0.229973
2.29838,0.11574,0.211581
2.31447,0.200732,0.191039
2.24818,-0.051379,0.167546
2.29665,0.114487,0.126871
2.27889,0.0299045,0.0643773
2.25635,-0.0539693,0.0029938
2.27374,0.0286065,-0.0187329
2.29593,0.110957,-0.124931
2.30797,0.195786,-0.148324
2.27895,0.109339,-0.207599
2.30403,0.195006,-0.2332
2.28271,0.108441,-0.293036
2.29701,0.1932,-0.318385
2.24345,-0.0582447,-0.327674
2.25963,0.0238535,-0.35193
2.28629,0.107691,-0.379036
2.29456,0.192833,-0.405025
2.23271,-0.0606956,-0.410817
2.25203,0.0225546,-0.436222
2.27273,0.105979,-0.463846
2.27435,0.104901,-0.553164
2.29296,0.192497,-0.584087
2.27955,0.105141,-0.647283
2.2858,0.102408,0.294775
2.31,0.187654,0.276112
2.26333,0.0174309,0.229469
2.29109,0.101283,0.210848
2.31466,0.186447,0.190957
2.24084,-0.0649703,0.167026
2.28035,0.099652,0.125935
2.27804,0.0159139,0.0643491
2.25598,-0.0678131,0.0029938
2.27088,0.0146352,-0.0187082
2.28456,0.0975188,-0.0407917
2.30614,0.181386,-0.148132
2.2766,0.0952286,-0.207328
2.30023,0.180476,-0.232699
2.28334,0.0944327,-0.293036
2.29518,0.178872,-0.317975
2.24107,-0.0719457,-0.327385
2.25381,0.00996201,-0.351006
2.27902,0.0933379,-0.377729
2.29079,0.178368,-0.404159
2.23033,-0.0743286,-0.410455
2.24722,0.00871699,-0.435271
2.27138,0.0919527,-0.463446
2.27301,0.0908662,-0.552691
2.29603,0.178575,-0.584579
2.27823,0.0910751,-0.646737
2.31322,0.175138,0.362531
2.30616,0.173105,0.275521
2.25942,0.00353676,0.229065
2.27973,0.0867689,0.20975
2.3108,0.171871,0.190547
2.25825,0.00282549,0.14651
2.27992,0.0856207,0.12588
2.27309,0.00193158,0.0642079
2.24853,-0.081401,0.00298451
2.26492,0.000699193,-0.0186588
2.27612,0.0831706,-0.0406311
2.27813,0.0812934,-0.207418
2.30328,0.166502,-0.232899
2.27297,0.0800367,-0.291637
2.29822,0.164927,-0.318248
2.23762,-0.0855818,-0.326952
2.2479,-0.00385712,-0.350083
2.27364,0.0791464,-0.376749
2.29479,0.16452,-0.404678
2.2259,-0.0878571,-0.409731
2.24625,-0.00506963,-0.435081
2.27092,0.0779804,-0.463246
2.26284,0.0765562,-0.550094
2.29032,0.163999,-0.582857
2.30637,0.160392,0.361296
2.27598,0.0739958,0.29337
2.30321,0.158678,0.275047
2.28718,0.0730015,0.210391
2.30982,0.157554,0.190384
2.23589,-0.0922995,0.166729
2.27941,0.0715984,0.125825
2.27006,-0.012,0.0641232
2.24698,-0.0951538,0.00298319
2.25988,-0.013169,-0.0186176
2.27659,0.069203,-0.0406311
2.2756,0.0672253,-0.207146
2.29929,0.152038,-0.232398
2.27243,0.0660597,-0.29151
2.29622,0.150628,-0.317838
2.24002,-0.0994417,-0.327385
2.24289,-0.0176111,-0.349314
2.27014,0.065081,-0.376095
2.28593,0.149793,-0.402946
2.22434,-0.101468,-0.40955
2.24126,-0.018811,-0.434131
2.26646,0.0639067,-0.462248
2.25938,0.0625626,-0.54915
2.27677,0.148993,-0.579166
2.23663,-0.105785,-0.587801
2.27341,0.0629511,-0.6451
2.30337,0.145988,0.360678
2.27441,0.059977,0.293114
2.30117,0.144357,0.274693
2.25232,-0.0241154,0.228359
2.27067,0.05853,0.208834
2.24226,-0.106348,0.167249
2.27581,0.05751,0.125604
2.2869,0.0567118,0.0427659
2.25676,-0.0269993,-0.0185929
2.27397,0.0551601,-0.0405776
2.3029,0.139664,-0.0633157
2.27999,0.0541515,-0.123954
2.30211,0.138487,-0.147685
2.27199,0.053168,-0.206784
2.29621,0.137689,-0.231996
2.26783,0.0520014,-0.290874
2.28919,0.136066,-0.316743
2.23541,-0.112984,-0.326807
2.24176,-0.0313591,-0.34916
2.26753,0.0510839,-0.375605
2.28877,0.13588,-0.403293
2.22465,-0.115166,-0.409731
2.24111,-0.0325628,-0.434131
2.25897,0.0498259,-0.46065
2.25681,0.0486353,-0.548442
2.27667,0.134963,-0.57892
2.23304,-0.119352,-0.58704
2.26894,0.0488969,-0.643735
2.30619,0.131965,0.360987
2.29507,0.129842,0.273864
2.3066,0.128919,0.189974
2.24455,-0.120264,0.167472
2.27412,0.0435066,0.125494
2.2812,0.0425667,0.0426537
2.25255,-0.0407736,-0.0185599
2.26627,0.0410614,-0.0404349
2.27229,0.0400201,-0.12352
2.29894,0.124144,-0.14743
2.27426,0.0392607,-0.206965
2.29105,0.123277,-0.231394
2.26811,0.0380853,-0.290874
2.288,0.121911,-0.31647
2.23369,-0.126643,-0.326663
2.23954,-0.0450739,-0.348852
2.26287,0.0370887,-0.374788
2.28563,0.121625,-0.4026
2.22489,-0.128871,-0.409912
2.23596,-0.046212,-0.43318
2.26022,0.0359798,-0.460849
2.27315,0.120722,-0.487634
2.25123,0.0346971,-0.547025
2.27456,0.120837,-0.578182
2.30005,0.117459,0.359906
2.2988,0.115907,0.274219
2.24987,-0.0517074,0.228157
2.26823,0.0306207,0.208559
2.30138,0.114466,0.189482
2.23879,-0.133737,0.167101
2.27834,0.0296039,0.125714
2.27942,0.0285436,0.0426164
2.24926,-0.0545215,-0.0185352
2.27248,0.0272269,-0.040542
2.27148,0.0252721,-0.206693
2.28977,0.109122,-0.231193
2.26731,0.0241571,-0.290747
2.28673,0.107777,-0.316196
2.23626,-0.0587368,-0.34839
2.2601,0.023173,-0.374298
2.28043,0.10732,-0.40156
2.21718,-0.14208,-0.408646
2.25549,0.0220628,-0.45985
2.26994,0.106589,-0.486797
2.24849,0.0208561,-0.546317
2.27138,0.106696,-0.577198
2.26167,0.0209784,-0.641552
2.29481,0.103078,0.35898
2.29352,0.101536,0.27351
2.2695,0.0155621,0.125219
2.24989,-0.0683521,-0.0185434
2.2666,0.0132477,-0.0404349
2.2901,0.0966193,-0.0629042
2.27059,0.0113291,-0.206603
2.28841,0.0949876,-0.230993
2.26444,0.0102313,-0.290365
2.28339,0.0935815,-0.315649
2.23098,-0.153976,-0.326518
2.23092,-0.0722971,-0.347621
2.25724,0.00929264,-0.373808
2.27514,0.0930844,-0.400521
2.21136,-0.155337,-0.407741
2.23032,-0.0734855,-0.432229
2.24873,0.0081979,-0.458452
2.26958,0.0926187,-0.486587
2.25149,0.00706837,-0.547025
2.26521,0.0924803,-0.575476
2.22468,-0.160018,-0.585516
2.26176,0.00710062,-0.641552
2.29342,0.0889186,0.358671
2.29112,0.0873477,0.273155
2.26655,0.00163427,0.125053
2.2726,0.000567697,0.0424855
2.25342,-0.0823018,-0.0185764
2.25464,-0.000656668,-0.0402209
2.26863,-0.0026009,-0.206421
2.28696,0.0808741,-0.230792
2.25652,-0.00365038,-0.289348
2.27897,0.0793967,-0.314965
2.22309,-0.167143,-0.325507
2.22649,-0.0858322,-0.347005
2.25429,-0.00455171,-0.373318
2.27173,0.0789857,-0.399828
2.21331,-0.169127,-0.408284
2.22786,-0.0870923,-0.431849
2.24874,-0.00560019,-0.458452
2.27304,0.0787928,-0.487216
2.24955,-0.00674081,-0.546553
2.21787,-0.173214,-0.583993
2.25695,-0.006763,-0.640188
2.28602,0.074587,0.357436
2.27574,0.0727802,0.271262
2.29114,0.0717118,0.188499
2.26352,-0.0122568,0.124888
2.23199,-0.177004,0.00296992
2.24688,-0.0958712,-0.0185269
2.25459,-0.0144909,-0.0402209
2.2656,-0.0157084,-0.12314
2.25961,-0.0164556,-0.205606
2.25646,-0.0174961,-0.289348
2.27644,0.0653264,-0.314554
2.21709,-0.180379,-0.324785
2.22394,-0.0994038,-0.346698
2.25028,-0.0183515,-0.372664
2.26725,0.0649043,-0.398962
2.20929,-0.182462,-0.407741
2.2214,-0.100494,-0.430708
2.24278,-0.0193474,-0.457254
2.27445,0.0648721,-0.487425
2.24558,-0.0205081,-0.545609
2.28644,0.0605588,0.357436
2.28309,0.0589947,0.27209
2.25137,-0.0248666,0.207003
2.23274,-0.106888,0.145021
2.26341,-0.0261453,0.124888
2.2274,-0.188912,0.0847031
2.22787,-0.19044,0.00296594
2.25346,-0.028312,-0.0402031
2.2825,0.0542359,-0.0626573
2.26347,-0.0295835,-0.123031
2.25249,-0.0302264,-0.204972
2.25631,-0.0313411,-0.289348
2.27581,0.0513349,-0.314417
2.21298,-0.19372,-0.324351
2.22428,-0.113098,-0.346852
2.24223,-0.0320458,-0.371357
2.26367,0.0509029,-0.398269
2.20519,-0.195753,-0.407199
2.24066,-0.0330795,-0.456854
2.25917,0.050565,-0.484074
2.24055,-0.0342122,-0.544428
2.25093,-0.0343706,-0.63855
2.27491,0.0462872,0.355583
2.26596,-0.0375893,0.291964
2.27447,0.0448088,0.271025
2.27989,0.0433632,0.187515
2.22906,-0.120424,0.144826
2.26021,-0.0399799,0.124723
2.21824,-0.201851,0.0844002
2.22368,-0.203833,0.00296196
2.24725,-0.0420263,-0.040096
2.25724,-0.0441443,-0.205425
2.24219,-0.0449069,-0.287567
2.27212,0.0373048,-0.31387
2.2088,-0.207018,-0.323918
2.21861,-0.126463,-0.346082
2.23607,-0.0456824,-0.370377
2.26394,0.0370123,-0.398269
2.20101,-0.209002,-0.406656
2.21902,-0.12769,-0.430518
2.24237,-0.0468683,-0.457254
2.2565,0.0366544,-0.483445
2.2471,-0.0481049,-0.546081
2.24298,-0.0480167,-0.636367
2.26824,0.0322295,0.354502
2.27172,0.0308117,0.27067
2.27912,0.0293604,0.187433
2.25493,-0.0537286,0.124447
2.21641,-0.216889,0.002954
2.24895,-0.055864,-0.0401317
2.23989,-0.058612,-0.287313
2.26537,0.0232913,-0.312912
2.20847,-0.220666,-0.324062
2.22272,-0.140385,-0.346852
2.23476,-0.0593756,-0.370214
2.26412,0.0231204,-0.398269
2.19969,-0.222503,-0.406656
2.21329,-0.140992,-0.429567
2.23519,-0.0604409,-0.455855
2.25277,0.0227685,-0.482607
2.23122,-0.0614638,-0.542303
2.20814,-0.227096,-0.582723
2.22666,-0.144926,-0.609053
2.23783,-0.061646,-0.635003
2.26691,0.0168352,0.270079
2.27626,0.0153552,0.187187
2.24558,-0.0672944,0.123952
2.25556,-0.0686575,0.0421865
2.21504,-0.230485,0.002954
2.24956,-0.0696932,-0.0401496
2.27311,0.01216,-0.062383
2.24956,-0.0716189,-0.20479
2.24048,-0.0723866,-0.28744
2.26448,0.00938669,-0.312775
2.20609,-0.234108,-0.323918
2.21591,-0.153611,-0.345928
2.2314,-0.07299,-0.369724
2.25634,0.00919542,-0.396883
2.19633,-0.235786,-0.406294
2.21826,-0.15498,-0.430708
2.22988,-0.0739922,-0.454856
2.24798,0.00892594,-0.48156
2.20382,-0.240326,-0.581961
2.22477,-0.158517,-0.60879
2.26796,0.0029267,0.270197
2.23814,-0.0796852,0.205904
2.27133,0.001385,0.186778
2.2185,-0.160856,0.144308
2.24512,-0.0810717,0.123952
2.2471,-0.0822037,0.0420369
2.20961,-0.243633,0.0029487
2.25009,-0.083532,-0.0401674
2.26615,-0.0017823,-0.0621909
2.24908,-0.0854206,-0.20479
2.24197,-0.0862088,-0.287694
2.2645,-0.00450809,-0.312775
2.20068,-0.247198,-0.32334
2.21197,-0.166981,-0.345467
2.23485,-0.0868335,-0.370377
2.25242,-0.00464129,-0.39619
2.188,-0.248481,-0.405028
2.2065,-0.167769,-0.428616
2.22645,-0.0875576,-0.454257
2.24702,-0.00486547,-0.481351
2.24093,-0.00481317,-0.568833
2.19942,-0.253512,-0.5812
2.21991,-0.171867,-0.607737
2.23306,-0.0889499,-0.633911
2.25999,-0.0109508,0.269251
2.26632,-0.0125241,0.186368
2.24059,-0.0946774,0.123731
2.24856,-0.0960755,0.0420743
2.20112,-0.256377,0.00293941
2.24854,-0.0972935,-0.0401496
2.24354,-0.0989996,-0.204337
2.23744,-0.0997868,-0.287186
2.2565,-0.0183383,-0.311681
2.19716,-0.260464,-0.323051
2.21385,-0.180792,-0.345928
2.22738,-0.100234,-0.369233
2.24939,-0.0184376,-0.39567
2.18448,-0.261668,-0.404666
2.20641,-0.181385,-0.428806
2.22587,-0.101217,-0.454257
2.24499,-0.0186366,-0.480932
2.22389,-0.102255,-0.540887
2.23892,-0.0185471,-0.568341
2.21785,-0.185405,-0.607473
2.23536,-0.102783,-0.63473
2.25988,-0.0248176,0.269251
2.2652,-0.0264181,0.186286
2.23697,-0.108279,0.123566
2.22305,-0.189534,0.063022
2.19256,-0.269025,0.00293013
2.22076,-0.19055,-0.0183622
2.2459,-0.11099,-0.0401139
2.23792,-0.112514,-0.203884
2.23579,-0.113463,-0.287058
2.25139,-0.0321129,-0.310997
2.19552,-0.27394,-0.323051
2.20975,-0.194113,-0.345467
2.22377,-0.113748,-0.368743
2.24136,-0.0321263,-0.394284
2.18283,-0.275066,-0.404666
2.20037,-0.194488,-0.427855
2.22814,-0.115024,-0.454856
2.2419,-0.0323689,-0.480303
2.22128,-0.115797,-0.540415
2.23682,-0.0322565,-0.567849
2.21186,-0.198578,-0.606157
2.22604,-0.116046,-0.632274
2.263,-0.0402812,0.186122
2.23128,-0.121731,0.123291
2.21487,-0.202534,0.0628244
2.2605,-0.0427231,0.0205199
2.18789,-0.28209,0.00292615
2.22254,-0.204448,-0.0183869
2.2342,-0.126075,-0.203612
2.25314,-0.0459671,-0.31127
2.18889,-0.286764,-0.322328
2.20852,-0.207668,-0.345467
2.22303,-0.127391,-0.368743
2.23718,-0.0457978,-0.393591
2.18208,-0.288584,-0.404847
2.22152,-0.128355,-0.453658
2.22343,-0.129594,-0.541123
2.24337,-0.0461202,-0.569571
2.21157,-0.212239,-0.60642
2.22144,-0.129478,-0.631183
2.25972,-0.0540944,0.185876
2.23049,-0.135419,0.123291
2.21359,-0.21612,0.0628244
2.2562,-0.0564923,0.0204836
2.21229,-0.217202,-0.0183128
2.22941,-0.139533,-0.20325
2.23324,-0.140829,-0.286931
2.25083,-0.0597386,-0.310997
2.19101,-0.300727,-0.322906
2.20327,-0.220821,-0.344851
2.21925,-0.140841,-0.368253
2.2339,-0.0594454,-0.393072
2.17832,-0.301697,-0.404485
2.22167,-0.142046,-0.453858
2.23058,-0.0595907,-0.477999
2.22357,-0.143297,-0.541359
2.18967,-0.307009,-0.580438
2.20158,-0.224922,-0.60405
2.21773,-0.142921,-0.630364
2.25636,-0.0678688,0.18563
2.22763,-0.148969,0.12318
2.20625,-0.229079,0.062655
2.25381,-0.0702727,0.0204655
2.21091,-0.230772,-0.0183128
2.2365,-0.151837,-0.039989
2.22354,-0.152868,-0.202797
2.2264,-0.154118,-0.286168
2.24448,-0.0733542,-0.310176
2.1901,-0.314306,-0.323051
2.20187,-0.234336,-0.344851
2.22031,-0.154592,-0.36858
2.2335,-0.0731512,-0.393072
2.17545,-0.314917,-0.404304
2.21978,-0.155607,-0.453658
2.21101,-0.156117,-0.538526
2.18774,-0.320439,-0.580438
2.20721,-0.155848,-0.627635
2.24893,-0.0814598,0.185056
2.23258,-0.164125,0.04185
2.25034,-0.0839886,0.0204382
2.20647,-0.244004,-0.0182881
2.22157,-0.166434,-0.202706
2.2264,-0.167851,-0.286295
2.24696,-0.08724,-0.310586
2.18911,-0.327885,-0.323195
2.19843,-0.247621,-0.344543
2.22424,-0.168586,-0.369397
2.23005,-0.0867395,-0.392552
2.17542,-0.328553,-0.404666
2.21097,-0.168628,-0.45206
2.2287,-0.0869208,-0.47779
2.20517,-0.169308,-0.537345
2.18095,-0.333126,-0.579168
2.20249,-0.252361,-0.605104
2.20238,-0.169094,-0.626543
2.24341,-0.0950465,0.184647
2.22855,-0.177582,0.0417939
2.19798,-0.256726,-0.0182304
2.2215,-0.180143,-0.202797
2.22434,-0.181428,-0.286168
2.18608,-0.341158,-0.323051
2.19393,-0.260755,-0.344082
2.21431,-0.181505,-0.367926
2.22653,-0.100288,-0.392032
2.1792,-0.342812,-0.405752
2.21184,-0.182352,-0.452459
2.22422,-0.100418,-0.476952
2.17982,-0.346654,-0.579422
2.20322,-0.182763,-0.627089
2.24179,-0.108762,0.184565
2.22741,-0.191253,0.0417939
2.19438,-0.269963,-0.0182139
2.21837,-0.193597,-0.202616
2.21726,-0.194553,-0.285405
2.18395,-0.354566,-0.323051
2.20013,-0.275193,-0.345313
2.21414,-0.195175,-0.36809
2.23177,-0.11425,-0.393072
2.17802,-0.356335,-0.405932
2.20385,-0.195315,-0.451061
2.22161,-0.113963,-0.476533
2.17193,-0.359076,-0.577899
2.19444,-0.278762,-0.603787
2.19918,-0.196022,-0.626271
2.2361,-0.122243,0.184155
2.21823,-0.204183,0.0416444
2.18971,-0.283038,-0.0181892
2.22114,-0.205663,-0.0397928
2.21813,-0.207298,-0.202706
2.18173,-0.367959,-0.323051
2.19056,-0.287659,-0.344082
2.21094,-0.208572,-0.367763
2.22611,-0.12766,-0.392206
2.17386,-0.369363,-0.405571
2.20066,-0.208649,-0.450661
2.21696,-0.127368,-0.475695
2.16778,-0.372069,-0.577391
2.18982,-0.29184,-0.602997
2.20997,-0.217106,0.0415136
2.21385,-0.220608,-0.202434
2.21273,-0.22155,-0.285151
2.18386,-0.300421,-0.343312
2.21158,-0.222331,-0.36809
2.22135,-0.141067,-0.391513
2.16864,-0.382183,-0.405028
2.19934,-0.222148,-0.450661
2.21419,-0.140845,-0.475276
2.21513,-0.140866,-0.56342
2.19086,-0.30567,-0.603787
2.21059,-0.23087,0.041551
2.21249,-0.232278,-0.0396858
2.19768,-0.312434,-0.0993244
2.18295,-0.313956,-0.343466
2.21017,-0.235897,-0.36809
2.21947,-0.154626,-0.391339
2.16819,-0.395835,-0.40539
2.19209,-0.235012,-0.449463
2.21133,-0.154292,-0.474857
2.18831,-0.235727,-0.534748
2.18417,-0.318412,-0.60247
2.18946,-0.235851,-0.624633
2.2366,-0.164788,0.102388
2.1982,-0.24322,0.0413454
2.20903,-0.245628,-0.0396501
2.20787,-0.248465,-0.284896
2.16389,-0.406048,-0.321462
2.18196,-0.327491,-0.34362
2.21651,-0.168093,-0.390993
2.16476,-0.408949,-0.405209
2.17265,-0.327295,-0.425573
2.18963,-0.248347,-0.449263
2.20937,-0.167784,-0.474648
2.18875,-0.24937,-0.535221
2.18122,-0.331663,-0.602207
2.18893,-0.249389,-0.624906
2.20947,-0.259411,-0.0396858
2.16621,-0.42026,-0.322184
2.17698,-0.340415,-0.343158
2.21446,-0.181609,-0.39082
2.15931,-0.421659,-0.404666
2.17642,-0.341534,-0.426714
2.18904,-0.261894,-0.449463
2.20245,-0.180857,-0.473391
2.17724,-0.344738,-0.60168
2.18831,-0.26293,-0.625179
2.23043,-0.19188,0.102205
2.20486,-0.272595,-0.0396323
2.15971,-0.432766,-0.321606
2.17485,-0.353767,-0.343158
2.20154,-0.276048,-0.367436
2.21036,-0.194934,-0.3903
2.15475,-0.434511,-0.404304
2.16847,-0.353932,-0.425573
2.18739,-0.275321,-0.449463
2.16461,-0.356367,-0.598784
2.19143,-0.276956,-0.626543
2.22435,-0.206406,0.0202749
2.18344,-0.365285,-0.0990562
2.18307,-0.366633,-0.180595
2.20209,-0.287897,-0.202072
2.21896,-0.208093,-0.224771
2.16089,-0.446811,-0.322184
2.17557,-0.367598,-0.34362
2.19394,-0.288779,-0.366456
2.21206,-0.20877,-0.39082
2.15108,-0.447524,-0.404123
2.17207,-0.368216,-0.426714
2.20299,-0.208147,-0.474019
2.18396,-0.289638,-0.624906
2.22006,-0.219755,0.0202476
2.19342,-0.298553,-0.0394896
2.19929,-0.300486,-0.120643
2.19633,-0.300862,-0.201709
2.15811,-0.460062,-0.322184
2.1684,-0.380087,-0.342851
2.19408,-0.302505,-0.366783
2.20584,-0.221846,-0.389953
2.15118,-0.461333,-0.404666
2.16686,-0.381026,-0.426144
2.18288,-0.302009,-0.449263
2.19583,-0.221072,-0.472762
2.15094,-0.462577,-0.48989
2.18119,-0.302901,-0.624633
2.19741,-0.313975,-0.120643
2.19247,-0.314051,-0.201528
2.15235,-0.472658,-0.32175
2.167,-0.393562,-0.343004
2.18925,-0.31554,-0.366293
2.20639,-0.235586,-0.3903
2.14351,-0.473463,-0.403762
2.16352,-0.394139,-0.425954
2.18001,-0.315257,-0.449063
2.19443,-0.234541,-0.472762
2.17238,-0.315275,-0.533332
2.17644,-0.315864,-0.623815
2.21024,-0.246207,0.0201841
2.18564,-0.324859,-0.0394183
2.18853,-0.327203,-0.201347
2.18742,-0.328091,-0.283624
2.14844,-0.485638,-0.321606
2.16455,-0.406851,-0.343004
2.18532,-0.328673,-0.365966
2.20295,-0.248899,-0.389953
2.14248,-0.487043,-0.404123
2.1572,-0.406679,-0.425193
2.17804,-0.328627,-0.449063
2.20571,-0.259413,0.0201569
2.1406,-0.497691,-0.320884
2.1688,-0.421444,-0.344082
2.18424,-0.342229,-0.366129
2.2004,-0.262295,-0.38978
2.13754,-0.499732,-0.403762
2.14888,-0.418781,-0.424052
2.17792,-0.342289,-0.449463
2.18848,-0.261105,-0.472134
2.17027,-0.342213,-0.533804
2.14302,-0.510512,-0.239788
2.1404,-0.511506,-0.321317
2.16327,-0.43416,-0.34362
2.19582,-0.275423,-0.389261
2.13252,-0.512378,-0.4034
2.15397,-0.433508,-0.425573
2.17287,-0.355172,-0.448864
2.19265,-0.275259,-0.473391
2.1595,-0.436346,-0.512647
2.17196,-0.356152,-0.534748
2.1841,-0.367762,-0.201528
2.1401,-0.525337,-0.32175
2.15959,-0.447225,-0.343466
2.1789,-0.368842,-0.365966
2.19409,-0.288891,-0.389261
2.12552,-0.524511,-0.402676
2.14839,-0.446118,-0.425003
2.16776,-0.368006,-0.448264
2.17929,-0.287175,-0.470877
2.14153,-0.446408,-0.509021
2.16974,-0.369472,-0.534748
2.17849,-0.287031,-0.557761
2.17985,-0.380814,-0.201347
2.17871,-0.381674,-0.283624
2.133,-0.537492,-0.321173
2.14908,-0.458818,-0.342235
2.19032,-0.30208,-0.388914
2.14273,-0.458675,-0.424432
2.17028,-0.38215,-0.449263
2.17652,-0.300408,-0.470668
2.1636,-0.382102,-0.533804
2.17668,-0.300392,-0.557761
2.17257,-0.393295,-0.200894
2.122,-0.548588,-0.320017
2.18648,-0.315232,-0.388568
2.16597,-0.395107,-0.448864
2.17367,-0.313617,-0.470458
2.1593,-0.395021,-0.533332
2.19588,-0.327493,-0.060929
2.16718,-0.405285,-0.119829
2.16816,-0.406251,-0.200713
2.12815,-0.564133,-0.321462
2.14907,-0.486464,-0.343158
2.17078,-0.408704,-0.365802
2.1845,-0.328642,-0.388568
2.16062,-0.407845,-0.448264
2.17074,-0.326803,-0.470249
2.1492,-0.406817,-0.531443
2.169,-0.326504,-0.556777
2.19185,-0.340653,-0.0608741
2.17051,-0.420494,-0.201166
2.1512,-0.499932,-0.261904
2.12465,-0.577181,-0.321462
2.14701,-0.499866,-0.343312
2.16823,-0.422016,-0.365802
2.18245,-0.34204,-0.388568
2.16192,-0.421845,-0.449063
2.16676,-0.339814,-0.46983
2.16691,-0.433609,-0.201075
2.14229,-0.511737,-0.261198
2.1163,-0.58888,-0.320739
2.14102,-0.51234,-0.342851
2.16463,-0.435117,-0.365639
2.18128,-0.355583,-0.388741
2.15257,-0.433748,-0.447665
2.17139,-0.354204,-0.471296
2.16129,-0.446293,-0.200803
2.13815,-0.524636,-0.26108
2.16209,-0.447522,-0.283116
2.13879,-0.525703,-0.343004
2.16192,-0.448391,-0.365639
2.14507,-0.44595,-0.446666
2.16724,-0.367194,-0.470877
2.15656,-0.459131,-0.200622
2.15737,-0.460366,-0.282861
2.13073,-0.537608,-0.342235
2.14421,-0.459514,-0.447066
2.16495,-0.380485,-0.470877
2.15078,-0.471715,-0.20035
2.15353,-0.473381,-0.282734
2.12644,-0.550425,-0.342081
2.13848,-0.472029,-0.446467
2.16835,-0.394813,-0.472134
2.14575,-0.485492,-0.282098
2.12398,-0.563715,-0.342235
2.16996,-0.408643,-0.388394
2.13841,-0.485792,-0.447066
2.16877,-0.408653,-0.472762
2.14273,-0.498649,-0.282098
2.11857,-0.576218,-0.341927
2.16741,-0.42195,-0.388394
2.13443,-0.498681,-0.446866
2.15758,-0.42027,-0.470877
2.13095,-0.50971,-0.280953
2.16285,-0.434853,-0.388048
2.15017,-0.432537,-0.46983
2.12682,-0.522539,-0.280826
2.13916,-0.526483,-0.364822
2.16014,-0.448115,-0.388048
2.14652,-0.445523,-0.46962
2.12453,-0.535822,-0.280953
2.13398,-0.539115,-0.364495
2.15735,-0.461361,-0.388048
2.13992,-0.457867,-0.468783
2.13445,-0.553189,-0.365149
2.15448,-0.47459,-0.388048
2.15538,-0.487331,-0.222865
2.12339,-0.564248,-0.363842
2.12274,-0.578044,-0.364332
2.14658,-0.500546,-0.387701
2.14438,-0.513768,-0.304566
2.14346,-0.513707,-0.387701
2.14022,-0.52668,-0.304429
2.13358,-0.525202,-0.386489
2.13023,-0.538104,-0.303472
2.12936,-0.538042,-0.386315
2.12497,-0.550667,-0.303198
2.12125,-0.549862,-0.385449
2.11868,-0.562932,-0.302787
