2.60807,0.702599,-0.294
2.6104,0.686078,-0.293784
2.59235,0.662377,-0.390666
2.59156,0.645263,-0.389944
2.60617,0.633918,-0.291944
2.59739,0.629815,-0.390233
2.60517,0.61677,-0.291403
2.60121,0.613866,-0.390233
2.60036,0.700458,-0.219706
2.606,0.600104,-0.291078
2.61044,0.701511,-0.32055
2.59914,0.596566,-0.389366
2.60365,0.684236,-0.219625
2.60381,0.5828,-0.290429
2.6099,0.684222,-0.319961
2.59406,0.578668,-0.388065
2.60973,0.668742,-0.219787
2.60443,0.566179,-0.290105
2.60923,0.666965,-0.319373
2.59176,0.561483,-0.387199
2.60946,0.551669,-0.191463
2.61088,0.651992,-0.219543
2.60493,0.549572,-0.28978
2.60942,0.649983,-0.318901
2.60097,0.546791,-0.388065
2.59162,0.54152,-0.486974
2.60031,0.632426,-0.218323
2.60339,0.532582,-0.289239
2.61047,0.633257,-0.318548
2.60136,0.530228,-0.387632
2.5991,0.616991,-0.119529
2.60331,0.517079,-0.190533
2.59832,0.615082,-0.217836
2.59685,0.514665,-0.288157
2.61044,0.616315,-0.318077
2.59098,0.511573,-0.385609
2.59093,0.610612,-0.41456
2.58745,0.507594,-0.484984
2.60399,0.599574,-0.217998
2.59703,0.49816,-0.287832
2.6074,0.59873,-0.317253
2.59795,0.496409,-0.386187
2.59174,0.59404,-0.414098
2.58375,0.490424,-0.483718
2.60492,0.486695,0.00351509
2.60178,0.582279,-0.21751
2.58831,0.48004,-0.286534
2.60617,0.581639,-0.316664
2.59025,0.478481,-0.384598
2.58284,0.473851,-0.482994
2.60589,0.470347,0.00351244
2.60044,0.565246,-0.217104
2.60002,0.465727,-0.287508
2.59021,0.462058,-0.384165
2.5828,0.45748,-0.482452
2.59986,0.452805,0.0035005
2.59753,0.44997,-0.189244
2.60385,0.549279,-0.217104
2.59107,0.447733,-0.286209
2.59309,0.645079,-0.342639
2.58617,0.444981,-0.383153
2.5887,0.543392,-0.411944
2.5904,0.442451,-0.483356
2.59766,0.436016,0.00349387
2.59729,0.433531,-0.189029
2.59448,0.530695,-0.216047
2.58788,0.430847,-0.28556
2.60282,0.530791,-0.315015
2.58885,0.429104,-0.383153
2.58908,0.526907,-0.411482
2.58332,0.4205,-0.68708
2.59338,0.418952,0.00348458
2.59927,0.615097,-0.145174
2.59695,0.417111,-0.188814
2.59085,0.513409,-0.215478
2.58263,0.413702,-0.284694
2.60213,0.514041,-0.314544
2.58362,0.411965,-0.381997
2.58645,0.509864,-0.410559
2.58009,0.408171,-0.480462
2.5959,0.403032,0.00348458
2.59312,0.500114,-0.0217562
2.5991,0.598241,-0.144957
2.59354,0.400256,-0.188385
2.59636,0.697301,-0.27113
2.58905,0.398452,-0.285127
2.60231,0.497505,-0.314191
2.5861,0.396104,-0.381997
2.58661,0.493429,-0.410097
2.58061,0.392037,-0.4801
2.58929,0.387506,0.0992052
2.59437,0.386507,0.00347928
2.59614,0.484193,-0.0217562
2.60078,0.581846,-0.144848
2.59496,0.384189,-0.188313
2.58751,0.381978,-0.284694
2.59945,0.480445,-0.313484
2.58878,0.576932,-0.340095
2.57967,0.378935,-0.380697
2.58473,0.476653,-0.409328
2.59854,0.372604,0.0994703
2.59174,0.369874,0.00347265
2.5971,0.4679,-0.0217397
2.60235,0.565453,-0.144739
2.59628,0.368119,-0.188241
2.58882,0.365955,-0.284586
2.5916,0.462567,-0.312189
2.58936,0.560407,-0.339713
2.58391,0.363374,-0.380986
2.58858,0.460957,-0.409482
2.58989,0.355159,0.0990538
2.59594,0.354235,0.0034753
2.59598,0.451271,-0.0217068
2.60139,0.354054,-0.0925058
2.60186,0.54865,-0.144522
2.5981,0.647271,-0.171458
2.58268,0.350038,-0.187096
2.58905,0.349797,-0.284369
2.59439,0.446657,-0.312189
2.58984,0.543897,-0.339332
2.5919,0.643755,-0.368873
2.58805,0.347777,-0.381275
2.5837,0.442309,-0.507722
2.58904,0.338872,0.0989402
2.59906,0.338429,0.00347663
2.5918,0.434177,-0.0216491
2.59246,0.530075,-0.143817
2.59071,0.334952,-0.187525
2.5872,0.333396,-0.283937
2.59022,0.429592,-0.311365
2.58228,0.330884,-0.380119
2.58345,0.425968,-0.507151
2.5881,0.322609,0.0988266
2.59414,0.321614,0.00346734
2.59569,0.319415,-0.18774
2.58624,0.317152,-0.283612
2.59183,0.413534,-0.311247
2.58034,0.314554,-0.379541
2.5859,0.411523,-0.407789
2.59598,0.307427,0.0990538
2.5901,0.304989,0.00345938
2.60347,0.402282,-0.117875
2.5919,0.496905,-0.143437
2.60082,0.597328,-0.170883
2.59117,0.594588,-0.26812
2.58616,0.301047,-0.283396
2.58352,0.395968,-0.309951
2.58123,0.298602,-0.379397
2.58544,0.395201,-0.407327
2.5757,0.294773,-0.476844
2.59635,0.292383,0.194666
2.59286,0.290936,0.0988645
2.59226,0.386777,0.0740339
2.59193,0.289091,0.00345938
2.59294,0.480628,-0.143328
2.58334,0.381298,-0.213038
2.58499,0.284846,-0.283071
2.58688,0.380253,-0.310069
2.58302,0.282758,-0.379397
2.58,0.378183,-0.406096
2.57844,0.279069,-0.477025
2.59569,0.377014,-0.610326
2.59115,0.275708,0.194146
2.59459,0.275021,0.0988645
2.6025,0.371995,0.0742598
2.59166,0.272972,0.00345673
2.59445,0.563768,-0.0728624
2.59049,0.56106,-0.267317
2.57977,0.26826,-0.282314
2.58917,0.364373,-0.310069
2.57521,0.262744,-0.47612
2.58982,0.259505,0.193923
2.59126,0.258599,0.0986751
2.59681,0.354937,0.0740339
2.59528,0.257262,0.00345938
2.58507,0.351907,-0.0214926
2.59786,0.547838,-0.0728624
2.58782,0.446904,-0.142731
2.58999,0.544336,-0.266916
2.59324,0.253587,-0.283612
2.59037,0.348347,-0.309951
2.58053,0.345969,-0.405481
2.59335,0.243796,0.194071
2.59578,0.242974,0.0987887
2.59398,0.33835,0.0738928
2.58984,0.240685,0.0034501
2.58916,0.336296,-0.0215091
2.58399,0.332919,-0.21255
2.58584,0.236854,-0.282638
2.59049,0.332194,-0.309716
2.57596,0.234091,-0.377663
2.57966,0.329753,-0.405019
2.57888,0.328235,-0.503538
2.58232,0.42382,-0.635796
2.59777,0.228141,0.194294
2.58926,0.226346,0.0984858
2.59502,0.322304,0.0738645
2.59506,0.418213,0.0491397
2.59525,0.225135,0.0034554
2.59019,0.320281,-0.0215008
2.58968,0.513003,-0.0724509
2.59376,0.222635,-0.186881
2.59488,0.318149,-0.213282
2.58952,0.315932,-0.309363
2.57735,0.218281,-0.377663
2.575,0.311697,-0.502397
2.58487,0.407967,-0.635796
2.59316,0.21171,0.193849
2.59558,0.210859,0.0986751
2.58801,0.305321,0.0736104
2.59362,0.40167,0.0490649
2.59359,0.208966,0.00345142
2.58515,0.303565,-0.0214432
2.59409,0.206636,-0.186809
2.58986,0.301415,-0.212713
2.57666,0.204162,-0.28134
2.58549,0.299352,-0.308656
2.58456,0.202927,-0.37853
2.57762,0.297392,-0.404096
2.58547,0.394403,-0.433114
2.5964,0.195945,0.193997
2.59683,0.194929,0.0986751
2.58586,0.288991,0.0734975
2.58912,0.38472,0.0489341
2.59483,0.193048,0.00345142
2.58597,0.287587,-0.0214349
2.58175,0.284426,-0.2119
2.58084,0.188565,-0.281664
2.58728,0.283482,-0.308656
2.57983,0.186636,-0.377663
2.57645,0.281249,-0.403634
2.58009,0.376156,-0.531565
2.59663,0.180584,0.289938
2.59656,0.179941,0.193923
2.58506,0.273902,0.168651
2.59299,0.178648,0.0984858
2.59355,0.273749,0.0736669
2.59341,0.369108,0.0489714
2.58998,0.176714,0.00344346
2.58271,0.271192,-0.0213937
2.59046,0.174385,-0.18638
2.57849,0.268064,-0.211493
2.58095,0.17266,-0.281556
2.59193,0.267907,-0.309009
2.57994,0.170738,-0.377519
2.57346,0.263547,-0.501066
2.58994,0.36004,-0.741701
2.5967,0.164585,0.289828
2.59065,0.163566,0.193403
2.5867,0.258036,0.168651
2.58705,0.162296,0.0982208
2.59319,0.257632,0.0736104
2.58671,0.351975,0.0488032
2.58532,0.255438,-0.021402
2.59685,0.255524,-0.116758
2.58949,0.158366,-0.186237
2.5781,0.252044,-0.211331
2.57799,0.156579,-0.281123
2.59155,0.251806,-0.308774
2.57859,0.345968,-0.333608
2.576,0.154608,-0.376796
2.5721,0.247469,-0.500496
2.58255,0.342874,-0.632963
2.58256,0.342876,-0.738972
2.59766,0.148649,0.289828
2.5916,0.147667,0.193403
2.58923,0.242252,0.168716
2.59099,0.146589,0.0983343
2.59373,0.241623,0.0735822
2.58386,0.335453,0.0487098
2.59114,0.43194,0.0238416
2.59095,0.144862,0.00344214
2.58983,0.239847,-0.0214267
2.59538,0.23931,-0.116623
2.58283,0.33257,-0.141538
2.59041,0.142474,-0.186237
2.5796,0.23622,-0.211331
2.57891,0.140758,-0.281123
2.58909,0.23554,-0.308303
2.57295,0.138586,-0.376218
2.57689,0.326045,-0.631074
2.58271,0.326781,-0.738426
2.59058,0.132301,0.288942
2.59146,0.131711,0.193328
2.58768,0.2261,0.168522
2.58885,0.130537,0.0982208
2.59417,0.225617,0.0735539
2.59083,0.320206,0.0488032
2.5878,0.128763,0.00343683
2.58727,0.223607,-0.0213937
2.59183,0.222953,-0.1164
2.58497,0.220727,-0.211656
2.58072,0.124979,-0.281231
2.58653,0.219314,-0.307832
2.58067,0.123126,-0.37723
2.58657,0.311158,-0.738972
2.58936,0.116314,0.288721
2.59505,0.211528,0.263964
2.59322,0.115853,0.193403
2.58305,0.209733,0.168133
2.58614,0.304763,0.143674
2.5926,0.114782,0.0983343
2.59275,0.304303,0.0488032
2.58834,0.398892,0.023769
2.58554,0.112751,0.00343285
2.5846,0.207407,-0.0213608
2.58561,0.397686,-0.0717925
2.58628,0.204862,-0.211656
2.58243,0.109184,-0.28134
2.58585,0.203284,-0.307596
2.58237,0.10733,-0.377374
2.57272,0.103781,-0.473588
2.57201,0.293407,-0.628949
2.58174,0.294518,-0.737062
2.59201,0.100501,0.288942
2.58042,0.194405,0.262351
2.5879,0.0997084,0.192957
2.58429,0.19388,0.168133
2.58499,0.288557,0.143508
2.59755,0.288719,0.0488593
2.59271,0.383295,0.0237871
2.57984,0.191101,-0.0213113
2.588,0.381814,-0.0717925
2.58351,0.188698,-0.211331
2.58603,0.0934441,-0.281664
2.5811,0.186983,-0.30689
2.581,0.091413,-0.377085
2.5733,0.0879929,-0.473588
2.57348,0.183992,-0.499735
2.57183,0.277412,-0.628477
2.57681,0.277949,-0.735152
2.57928,0.0852423,0.383338
2.59158,0.0845623,0.288831
2.58256,0.178637,0.262451
2.58348,0.083666,0.192585
2.58742,0.178156,0.168263
2.58671,0.27269,0.143508
2.59023,0.368224,0.119445
2.59828,0.272671,0.0488406
2.58908,0.366538,0.0237327
2.58396,0.175472,-0.0213361
2.58733,0.365507,-0.0717102
2.58661,0.172976,-0.211493
2.58457,0.0775152,-0.281448
2.57923,0.170945,-0.306536
2.57615,0.265487,-0.332082
2.57656,0.0754298,-0.376363
2.57235,0.169452,-0.40148
2.57456,0.168198,-0.499735
2.57655,0.261938,-0.734606
2.58604,0.164255,0.359012
2.58311,0.0684222,0.287835
2.58361,0.162787,0.262451
2.58295,0.0677863,0.192511
2.58249,0.161902,0.167874
2.58535,0.256518,0.143343
2.58947,0.35192,0.119308
2.59028,0.0669381,0.0981829
2.59194,0.255938,0.0486911
2.59326,0.350913,0.0237508
2.58818,0.0651662,0.00343418
2.58499,0.159613,-0.0213361
2.58259,0.348689,-0.0715182
2.58563,0.156981,-0.211331
2.58023,0.155116,-0.306536
2.57675,0.249579,-0.331955
2.58029,0.345216,-0.359569
2.57995,0.0596876,-0.376796
2.5763,0.153842,-0.401942
2.56927,0.0563001,-0.472683
2.56966,0.15205,-0.498594
2.57407,0.245738,-0.628241
2.57715,0.246032,-0.734333
2.58799,0.148441,0.359149
2.5815,0.0525308,0.287614
2.5925,0.147383,0.263258
2.58631,0.0519965,0.192734
2.58144,0.145941,0.167745
2.58489,0.240464,0.143233
2.59357,0.336282,0.119399
2.58964,0.0510235,0.098145
2.59047,0.239752,0.048635
2.58842,0.334099,0.0236873
2.58653,0.0492462,0.00343153
2.58892,0.143916,-0.0213608
2.5804,0.236095,-0.140832
2.58555,0.141058,-0.211249
2.58433,0.0457751,-0.28134
2.5851,0.139495,-0.307007
2.57625,0.233585,-0.331701
2.57532,0.0437721,-0.376074
2.57818,0.138084,-0.402095
2.57449,0.0406118,-0.473588
2.57055,0.13628,-0.498594
2.57747,0.230112,-0.628713
2.57286,0.229701,-0.732696
2.58885,0.132558,0.359149
2.58276,0.0367042,0.287724
2.59137,0.131372,0.263057
2.58857,0.0361541,0.192883
2.58827,0.1304,0.168133
2.5893,0.224858,0.143398
2.59558,0.320361,0.119399
2.58891,0.223595,0.0485789
2.58943,0.318088,0.0236782
2.58678,0.0333746,0.00343153
2.58775,0.127929,-0.0213443
2.59129,0.127061,-0.116087
2.57981,0.220088,-0.140723
2.58516,0.0310071,-0.185592
2.58537,0.125143,-0.211168
2.58357,0.0299056,-0.281231
2.58491,0.123583,-0.30689
2.57257,0.0279372,-0.37564
2.57405,0.122028,-0.401326
2.57764,0.0248427,-0.474131
2.57722,0.120781,-0.499735
2.57786,0.214212,-0.628477
2.57135,0.213671,-0.731877
2.58763,0.116582,0.358875
2.58692,0.0208881,0.288167
2.59014,0.115381,0.262855
2.58974,0.0202781,0.192957
2.59201,0.114648,0.168327
2.58864,0.208806,0.143288
2.5965,0.304313,0.119354
2.59023,0.207706,0.0485789
2.59133,0.302194,0.0236782
2.58394,0.0174815,0.00342755
2.58549,0.111919,-0.0213196
2.58261,0.3004,-0.0713536
2.57414,0.108772,-0.210192
2.5837,0.0140526,-0.281231
2.58265,0.107596,-0.306536
2.57771,0.106354,-0.401788
2.58069,0.00903651,-0.474673
2.57791,0.104965,-0.499735
2.57719,0.198242,-0.628005
2.58124,0.198553,-0.734333
2.59057,0.00610672,0.384807
2.59127,0.100818,0.359287
2.58998,0.00502043,0.288499
2.59179,0.0995242,0.262956
2.58782,0.00438393,0.192808
2.58569,0.0984761,0.167874
2.58091,0.192251,0.142792
2.59435,0.287935,0.119171
2.59345,0.191956,0.0486163
2.59016,0.285959,0.023651
2.58613,0.0960522,-0.0213196
2.58142,0.284219,-0.0712713
2.58966,0.0951424,-0.115953
2.58122,0.282921,-0.166282
2.57675,0.0930471,-0.210355
2.58524,0.0918175,-0.306772
2.5714,0.0902923,-0.40071
2.5736,0.0889755,-0.498784
2.57448,0.18215,-0.62706
2.5866,-0.00977387,0.384219
2.59085,0.0848835,0.359149
2.584,-0.0108464,0.287835
2.58639,0.083427,0.262351
2.579,0.177514,0.237674
2.59187,0.272943,0.214315
2.58381,-0.011477,0.192511
2.58125,0.0824495,0.167551
2.58304,0.176479,0.142847
2.59508,0.271906,0.119126
2.58468,0.0815205,0.0730457
2.59159,0.175836,0.0485602
2.58987,0.269853,0.0236328
2.58167,0.0800273,-0.0212784
2.5861,0.268685,-0.0713536
2.5852,0.079098,-0.115729
2.58027,0.0773242,-0.210599
2.58477,0.0759239,-0.306654
2.5776,-0.0194575,-0.376363
2.56821,0.0730151,-0.497643
2.57652,0.166413,-0.627296
2.59132,0.0689848,0.359149
2.58486,0.0675037,0.262149
2.58302,0.161873,0.237948
2.58755,0.256444,0.213823
2.5807,-0.0272991,0.192288
2.58371,0.0666612,0.16768
2.58407,0.160626,0.142847
2.5957,0.25588,0.11908
2.59362,0.159993,0.0485789
2.58949,0.253762,0.0236147
2.58582,-0.0301066,0.0034302
2.57612,0.0640359,-0.021229
2.58571,0.252617,-0.0712987
2.58065,0.0631119,-0.115506
2.57546,0.156166,-0.140235
2.57655,0.250451,-0.16577
2.58069,0.0614905,-0.210599
2.58054,-0.0334686,-0.280907
2.57842,-0.0352865,-0.376507
2.57133,0.058708,-0.400557
2.5704,0.152707,-0.426416
2.57747,-0.0384232,-0.474131
2.57458,0.15043,-0.626588
2.58575,0.0529617,0.358326
2.5943,0.14815,0.334769
2.58026,0.0515426,0.261645
2.58794,0.146246,0.238314
2.58709,0.240378,0.213659
2.57949,-0.0431168,0.192214
2.58207,0.0507674,0.167551
2.57803,0.144377,0.142462
2.59722,0.239948,0.11908
2.58949,0.0498733,0.0731586
2.58956,0.143798,0.0484855
2.58801,0.237594,0.0235875
2.57946,0.0482841,-0.0212537
2.58024,0.236109,-0.0711067
2.58298,0.0473127,-0.115595
2.57705,0.234547,-0.165706
2.57205,0.0454959,-0.209867
2.5783,-0.0492639,-0.28069
2.56769,0.0428635,-0.399941
2.5703,0.13688,-0.426252
2.57227,-0.0541341,-0.473226
2.56401,0.0414145,-0.496693
2.57243,0.135778,-0.525172
2.57352,0.134529,-0.626116
2.58009,0.0370096,0.357503
2.58922,0.131926,0.334002
2.58833,-0.0585198,0.288388
2.5855,0.0357783,0.262149
2.58083,0.129963,0.237582
2.58355,0.224069,0.213249
2.58017,-0.0589663,0.192288
2.57335,0.0348017,0.166968
2.58087,0.128655,0.142572
2.59168,0.223407,0.118761
2.5944,0.222136,0.0236328
2.57971,0.0324559,-0.0212537
2.57852,0.125922,-0.0460534
2.58563,0.220613,-0.0712164
2.58322,0.031463,-0.115595
2.57645,0.218561,-0.165579
2.57428,0.0297363,-0.21003
2.57497,-0.0650078,-0.280366
2.57004,0.12209,-0.32992
2.56592,0.0270868,-0.399633
2.57091,-0.0698895,-0.473045
2.57108,0.0257501,-0.498024
2.56636,0.119672,-0.523774
2.57041,0.118556,-0.625172
2.5763,0.0211453,0.356954
2.58403,0.11577,0.333236
2.58666,0.019921,0.26225
2.5776,0.113949,0.237216
2.59382,0.208933,0.213987
2.58574,-0.0749702,0.192734
2.57452,0.0190186,0.167033
2.5836,0.112904,0.142682
2.593,0.207501,0.118761
2.59472,0.206134,0.0236238
2.58286,0.0166458,-0.0212784
2.57924,0.110098,-0.0460534
2.58095,0.20427,-0.0710518
2.58437,0.015618,-0.11564
2.57191,0.108481,-0.139909
2.5784,0.0139619,-0.210355
2.57551,-0.0808375,-0.280474
2.56776,0.106196,-0.329538
2.56802,0.0113508,-0.399941
2.56945,-0.0856302,-0.472864
2.56923,0.00996608,-0.497643
2.56803,0.103962,-0.523974
2.57109,0.102782,-0.625172
2.58134,0.00534722,0.35764
2.58172,0.0997973,0.332852
2.58443,-0.0901742,0.288056
2.58674,0.00404913,0.26225
2.59505,0.193013,0.213987
2.58224,-0.0907296,0.192511
2.57459,0.00322128,0.167033
2.58225,0.0969744,0.142572
2.59077,0.0960716,0.0484668
2.58696,0.189552,0.0235421
2.58491,0.000797976,-0.0212949
2.58814,0.188866,-0.0712164
2.57942,-0.000239165,-0.115417
2.57153,0.0926619,-0.139855
2.57744,-0.00185843,-0.210274
2.57,-0.0964526,-0.279933
2.57289,0.184639,-0.356285
2.571,-0.00441153,-0.400403
2.56986,-0.101433,-0.473045
2.57415,-0.00580969,-0.498594
2.57944,0.0872675,-0.62706
2.57153,0.18418,-0.760689
2.5833,-0.0104997,0.357914
2.57733,0.0837932,0.332213
2.57291,-0.105582,0.286839
2.58572,-0.0118183,0.262149
2.57482,0.0821823,0.23685
2.59519,0.177019,0.213905
2.57865,-0.106449,0.192288
2.57655,-0.0125859,0.167162
2.5798,0.0810341,0.142407
2.58793,-0.0136804,0.0731022
2.58731,0.0800495,0.048392
2.58408,0.173407,0.0235058
2.58726,0.172849,-0.0711616
2.58137,-0.0160786,-0.115506
2.57006,0.0768219,-0.139747
2.57605,0.170836,-0.165323
2.5714,-0.0176322,-0.209786
2.57631,-0.112524,-0.28069
2.58184,-0.019236,-0.306183
2.57086,0.074735,-0.329793
2.57991,0.169238,-0.357106
2.57019,-0.114099,-0.37564
2.56994,-0.0201791,-0.400249
2.56133,-0.116841,-0.471598
2.57407,-0.0216043,-0.498594
2.57993,0.0714387,-0.62706
2.57725,-0.0262898,0.357091
2.59848,0.163007,0.310183
2.57764,-0.0275986,0.261342
2.59324,0.160907,0.213659
2.58293,-0.122505,0.19266
2.57842,-0.0284171,0.167292
2.58424,0.0653041,0.142627
2.59439,0.159614,0.11867
2.58275,0.0640486,0.0482985
2.59208,0.157974,0.0235693
2.58573,-0.0309349,-0.0213031
2.58428,0.156728,-0.0710518
2.58322,-0.031942,-0.115595
2.57307,0.154787,-0.165067
2.57423,-0.0334486,-0.21003
2.57657,-0.128379,-0.280799
2.57869,-0.035037,-0.30583
2.57694,0.153169,-0.356559
2.57142,-0.129967,-0.375929
2.57174,-0.0359752,-0.400557
2.5586,-0.132453,-0.471236
2.57094,-0.0373553,-0.498024
2.57255,0.0554397,-0.625172
2.57611,0.0539168,0.428137
2.59447,0.14678,0.309591
2.57543,-0.0433806,0.26114
2.58014,-0.138245,0.192511
2.5802,-0.0442717,0.167421
2.5806,0.0493699,0.142407
2.59033,0.143416,0.118442
2.5831,0.0481999,0.0482985
2.58249,-0.0467457,-0.0212784
2.5822,0.140706,-0.0709695
2.57198,0.138888,-0.16494
2.57796,-0.0493194,-0.210355
2.57375,-0.144075,-0.280582
2.57545,-0.0508002,-0.305476
2.56563,0.0430811,-0.32903
2.57091,0.136986,-0.355601
2.57057,-0.145743,-0.375929
2.57148,-0.0517544,-0.400557
2.55577,-0.148036,-0.470874
2.56674,-0.0530484,-0.497263
2.57284,0.0396538,-0.625172
2.57639,0.0381091,0.428137
2.5824,0.0363947,0.332724
2.59136,0.130658,0.309118
2.57711,-0.0592281,0.261342
2.57924,-0.154074,0.192511
2.57888,-0.0600794,0.167356
2.58186,0.0335476,0.142462
2.58917,0.127421,0.11835
2.58934,0.0324246,0.0484107
2.58684,0.125813,0.0235058
2.57516,-0.0624211,-0.0212207
2.57802,0.124618,-0.0708323
2.57278,0.123104,-0.16494
2.57163,-0.0649854,-0.209867
2.57509,-0.0666019,-0.305476
2.57576,0.0274436,-0.330302
2.5717,0.121208,-0.355601
2.56667,-0.161326,-0.375496
2.57308,-0.0675836,-0.400864
2.56394,0.0262883,-0.424618
2.56735,-0.0688229,-0.497453
2.56315,0.0250722,-0.522576
2.57109,0.0238484,-0.624699
2.5796,0.0205251,0.332341
2.58219,0.114316,0.307935
2.5747,-0.0749819,0.26114
2.57725,-0.169831,0.192437
2.57846,-0.0759019,0.167356
2.57802,0.0176777,0.142241
2.5889,0.111489,0.118305
2.5875,0.0165233,0.0483733
2.58256,0.109726,0.0234604
2.57572,-0.0782512,-0.021229
2.57555,0.0150534,-0.0459464
2.57774,0.108755,-0.0708049
2.57648,0.10744,-0.165131
2.57318,-0.080826,-0.21003
2.57272,0.106789,-0.259691
2.57192,0.0116206,-0.329793
2.5724,0.105426,-0.355601
2.57361,-0.0834025,-0.401018
2.56307,0.0105517,-0.424455
2.55474,-0.179457,-0.471055
2.56589,-0.0845422,-0.497263
2.56522,0.00935168,-0.522975
2.57605,0.00808729,-0.62588
2.56737,0.104816,-0.652238
2.57769,0.00469294,0.332086
2.58781,0.0986587,0.308526
2.57519,-0.0908136,0.261241
2.59143,0.0970304,0.213249
2.57894,-0.0917571,0.167421
2.57408,0.00185602,0.142021
2.58655,0.00064612,0.0483546
2.58619,0.0939865,0.0234876
2.57412,-0.18825,0.00342357
2.5752,-0.094054,-0.021229
2.57959,-0.00075131,-0.0460177
2.57636,0.0928639,-0.0707501
2.5731,0.0914874,-0.164876
2.57662,-0.0967629,-0.210355
2.57432,0.0910361,-0.259792
2.56896,-0.00415582,-0.329411
2.57102,0.0895713,-0.355327
2.57239,-0.193405,-0.376652
2.57404,-0.0992304,-0.401172
2.56703,-0.00518318,-0.425109
2.55654,-0.195354,-0.471598
2.56827,-0.1004,-0.497833
2.57022,-0.00770171,-0.624463
2.56603,0.088994,-0.651746
2.57172,-0.0110979,0.331319
2.58638,0.0827149,0.30829
2.57061,-0.106448,0.260838
2.585,0.0809096,0.212676
2.57994,-0.201834,0.192808
2.57434,-0.107413,0.167162
2.57105,-0.0139221,0.141856
2.59107,0.0797416,0.11835
2.5825,-0.0152011,0.0482799
2.58971,0.0782068,0.0235148
2.57292,-0.204041,0.00342357
2.57357,-0.109811,-0.0212207
2.57754,-0.0165665,-0.045982
2.57588,0.077024,-0.0707226
2.56515,-0.0177853,-0.139421
2.57409,-0.206484,-0.185377
2.57797,-0.112658,-0.210518
2.57483,0.0752386,-0.259792
2.57043,-0.207274,-0.28069
2.5679,-0.0199109,-0.329284
2.57152,0.0737941,-0.355327
2.55734,-0.208062,-0.374629
2.56844,-0.114802,-0.400403
2.56705,-0.212009,-0.473769
2.56368,-0.115979,-0.497073
2.57109,-0.023481,-0.624699
2.56943,0.0733304,-0.652485
2.58175,0.0683805,0.403602
2.57161,-0.0268775,0.331319
2.58386,0.0667666,0.307935
2.57388,-0.122408,0.261241
2.59143,0.0651972,0.213167
2.56865,-0.122968,0.166838
2.57192,-0.029709,0.141911
2.59151,0.0638415,0.11835
2.58036,-0.0310227,0.0482425
2.58515,0.0621949,0.0234695
2.56963,-0.219654,0.00342091
2.57085,-0.125502,-0.0212043
2.57339,-0.0323314,-0.0459107
2.5733,0.061146,-0.0706403
2.57099,-0.0336028,-0.139747
2.57524,-0.128375,-0.210355
2.57425,0.0594153,-0.259691
2.56316,-0.222526,-0.280041
2.56773,-0.0356669,-0.329284
2.56598,0.0578802,-0.354506
2.55898,-0.224008,-0.375063
2.56177,-0.130258,-0.399479
2.56875,-0.0367124,-0.425435
2.56178,-0.227408,-0.473045
2.56684,-0.131909,-0.497833
2.56701,-0.0391971,-0.623755
2.56402,0.057433,-0.651008
2.57528,0.0507351,0.30687
2.57982,0.0490678,0.212184
2.56785,-0.138727,0.166838
2.58067,-0.0456484,0.142407
2.57712,-0.0468005,0.0481864
2.58348,0.0462957,0.0234513
2.56823,-0.235417,0.00342091
2.57203,-0.141384,-0.0212207
2.57314,-0.0481208,-0.0459107
2.57663,0.0454082,-0.0707226
2.56574,-0.0492815,-0.139475
2.57535,0.0441267,-0.16494
2.57141,-0.144006,-0.210111
2.57158,0.0435683,-0.25939
2.57165,-0.23917,-0.281123
2.56746,-0.0514215,-0.329284
2.56926,0.0421833,-0.354917
2.5615,-0.240075,-0.37564
2.56684,-0.146312,-0.400403
2.56848,-0.0524733,-0.425435
2.56724,0.0419709,-0.451625
2.5623,-0.243308,-0.473407
2.56305,-0.147487,-0.497263
2.56284,-0.0548641,-0.622811
2.5825,0.0350268,0.307698
2.57709,0.0331989,0.211938
2.56595,-0.15442,0.166774
2.57735,-0.0614109,0.142241
2.57779,-0.0626368,0.0482051
2.57971,0.0303958,0.023415
2.56873,-0.251365,0.00342357
2.57012,-0.157102,-0.0212125
2.5688,-0.0638091,-0.0458393
2.58086,0.0296434,-0.0708323
2.56639,-0.065049,-0.13953
2.57258,0.0282909,-0.164748
2.57347,-0.159967,-0.210355
2.57112,-0.255043,-0.281231
2.56015,-0.0669925,-0.328394
2.56947,0.0264179,-0.354917
2.56293,-0.256082,-0.376074
2.56294,-0.161872,-0.399941
2.57106,-0.0683108,-0.425925
2.55684,-0.25863,-0.472683
2.55915,-0.163023,-0.496693
2.56528,-0.0693667,-0.523175
2.56828,-0.0707489,-0.624227
2.57862,0.0208154,0.402984
2.57969,0.0191581,0.307343
2.57924,0.017399,0.212102
2.56496,-0.170162,0.166774
2.57992,-0.0773138,0.142407
2.58426,0.0160797,0.117986
2.58235,-0.0786048,0.0482985
2.57785,0.0145551,0.0233969
2.56415,-0.266811,0.00341959
2.56611,-0.172668,-0.0211878
2.56736,-0.0795388,-0.0458215
2.57999,0.0138016,-0.0708049
2.57652,-0.174407,-0.115551
2.57093,-0.0809519,-0.139801
2.5707,0.0124956,-0.16462
2.57122,-0.269906,-0.185592
2.56945,-0.175551,-0.210111
2.56894,0.0119938,-0.259089
2.56061,-0.269877,-0.280258
2.57255,0.0106637,-0.355327
2.55442,-0.271073,-0.375063
2.56584,-0.177868,-0.400557
2.56764,-0.0839885,-0.425435
2.56559,0.0104557,-0.451279
2.5513,-0.273894,-0.47196
2.56202,-0.178997,-0.497453
2.56382,-0.0850731,-0.522975
2.56586,-0.0864408,-0.623755
2.57678,0.00332521,0.306988
2.5763,0.00157096,0.211856
2.56387,-0.185897,0.166774
2.57141,-0.0928541,0.141966
2.58731,0.000222963,0.118122
2.58589,-0.00126653,0.0234695
2.56943,-0.283307,0.00342887
2.56799,-0.18863,-0.0212125
2.56582,-0.0952532,-0.0458037
2.58003,-0.00202916,-0.0708049
2.5634,-0.0964625,-0.139421
2.56674,-0.00327306,-0.164364
2.55938,-0.190647,-0.209379
2.57493,-0.00377786,-0.259691
2.56879,-0.286686,-0.28134
2.56267,-0.00510168,-0.353959
2.55369,-0.286852,-0.375207
2.56371,-0.193534,-0.400403
2.56707,-0.0997416,-0.425435
2.56659,-0.00528868,-0.451452
2.56381,-0.194937,-0.498024
2.56325,-0.100803,-0.522975
2.56722,-0.10226,-0.624227
2.56272,-0.00550434,-0.650516
2.57228,-0.0142149,0.211528
2.57578,-0.108841,0.142241
2.58326,-0.0156283,0.11794
2.57892,-0.203945,0.0730739
2.58484,-0.0171266,0.0234604
2.57161,-0.29953,0.00343418
2.5628,-0.204065,-0.0211795
2.56219,-0.110865,-0.0457502
2.56567,-0.0190148,-0.164301
2.55816,-0.206347,-0.209379
2.56591,-0.0195092,-0.258788
2.56698,-0.302442,-0.28134
2.57145,-0.208955,-0.305948
2.55876,-0.303331,-0.376218
2.55952,-0.20902,-0.399941
2.5606,-0.0209885,-0.450413
2.56257,-0.210665,-0.498024
2.56259,-0.116529,-0.522975
2.56652,-0.0212609,-0.6515
2.57713,-0.030056,0.211938
2.57506,-0.124644,0.142241
2.58212,-0.0314664,0.117894
2.58468,-0.0329866,0.0234604
2.5727,-0.315669,0.00343816
2.5625,-0.219872,-0.0211878
2.56646,-0.126831,-0.0458393
2.57781,-0.0336638,-0.0707501
2.56479,-0.22273,-0.21003
2.56574,-0.035253,-0.258788
2.56803,-0.318554,-0.281664
2.56715,-0.224469,-0.305594
2.56269,-0.130053,-0.32903
2.56934,-0.036648,-0.354917
2.56274,-0.31976,-0.377085
2.5641,-0.22524,-0.400864
2.55778,-0.130833,-0.424128
2.56437,-0.0367561,-0.451106
2.5468,-0.320931,-0.472141
2.56123,-0.226384,-0.498024
2.56182,-0.13225,-0.522975
2.56965,-0.133959,-0.625172
2.57095,-0.134026,-0.73024
2.57889,-0.0459038,0.212102
2.57325,-0.140387,0.142186
2.58088,-0.0472911,0.117849
2.56309,-0.235774,-0.0212043
2.56763,-0.142687,-0.045875
2.58155,-0.0495571,-0.0708598
2.56717,-0.143965,-0.139747
2.56139,-0.238278,-0.209867
2.56747,-0.0510349,-0.258989
2.56209,-0.333792,-0.281231
2.5677,-0.240402,-0.30583
2.56383,-0.145888,-0.329284
2.56172,-0.335608,-0.37723
2.55283,-0.240044,-0.399326
2.56015,-0.0524094,-0.450413
2.54966,-0.337197,-0.473045
2.5637,-0.242465,-0.498784
2.56292,-0.14808,-0.523375
2.57955,-0.0617506,0.212184
2.56836,-0.155932,0.141966
2.57873,-0.157781,0.0482985
2.56458,-0.25179,-0.021229
2.56371,-0.158255,-0.0458215
2.57321,-0.0651937,-0.0706403
2.56425,-0.159591,-0.139638
2.57487,-0.0664949,-0.16494
2.5579,-0.253794,-0.209704
2.56512,-0.0667359,-0.258788
2.56189,-0.161554,-0.329157
2.56353,-0.351858,-0.377808
2.57061,-0.0684054,-0.452318
2.5641,-0.355129,-0.47612
2.56216,-0.258191,-0.498784
2.55512,-0.163365,-0.521976
2.57016,-0.0773076,0.211446
2.56536,-0.171555,0.141856
2.57272,-0.173265,0.0482051
2.56299,-0.267521,-0.021229
2.58175,-0.0812644,-0.0708872
2.57332,-0.269644,-0.115774
2.56422,-0.17539,-0.139692
2.56543,-0.0820058,-0.164364
2.55927,-0.269797,-0.209948
2.56565,-0.0825059,-0.258888
2.5569,-0.176996,-0.328648
2.55932,-0.0836438,-0.353685
2.55166,-0.271562,-0.399633
2.55798,-0.370291,-0.475397
2.5537,-0.273176,-0.497453
2.55407,-0.17904,-0.521976
2.57063,-0.181509,-0.626116
2.55372,-0.0838178,-0.753897
2.5786,-0.093401,0.212184
2.56426,-0.187292,0.141856
2.57759,-0.189487,0.0483172
2.56627,-0.283792,-0.0212702
2.5812,-0.0971042,-0.0708872
2.56707,-0.191417,-0.139909
2.56289,-0.0976694,-0.164237
2.56351,-0.286159,-0.210436
2.55477,-0.192607,-0.328521
2.55876,-0.099346,-0.353685
2.55706,-0.382997,-0.377519
2.55583,-0.287877,-0.400557
2.56344,-0.387155,-0.476844
2.55295,-0.288951,-0.497643
2.55604,-0.0995976,-0.754746
2.57101,-0.108926,0.21161
2.56107,-0.202865,0.141746
2.57539,-0.20522,0.0482985
2.58245,-0.112256,0.0234604
2.56249,-0.299301,-0.0212537
2.57756,-0.112809,-0.0708049
2.56287,-0.206924,-0.139747
2.56124,-0.113349,-0.164173
2.55478,-0.301066,-0.209867
2.55453,-0.20836,-0.328648
2.55564,-0.398832,-0.377663
2.56187,-0.304487,-0.401788
2.55747,-0.209634,-0.424945
2.56006,-0.115312,-0.450759
2.5599,-0.305658,-0.499355
2.55461,-0.21061,-0.522576
2.56337,-0.212639,-0.624936
2.57527,-0.124941,0.21202
2.5832,-0.126681,0.118077
2.5681,-0.220505,0.0481864
2.58172,-0.128099,0.0234604
2.56061,-0.315018,-0.0212537
2.57782,-0.128673,-0.0708323
2.5709,-0.317332,-0.115908
2.55684,-0.317227,-0.210192
2.55617,-0.224291,-0.32903
2.56724,-0.131244,-0.355054
2.55998,-0.415615,-0.378674
2.55897,-0.320078,-0.401634
2.55614,-0.225322,-0.424945
2.56285,-0.321971,-0.500305
2.55717,-0.226627,-0.523375
2.56201,-0.228363,-0.624936
2.57346,-0.140686,0.211938
2.56336,-0.234733,0.142021
2.58238,-0.142529,0.118077
2.56869,-0.236442,0.0482238
2.57689,-0.143715,0.0234241
2.56854,-0.332006,-0.0213361
2.57099,-0.144152,-0.0706678
2.56212,-0.238543,-0.139855
2.56571,-0.334327,-0.211087
2.56087,-0.145333,-0.258688
2.55277,-0.239785,-0.328775
2.5501,-0.334873,-0.400557
2.55471,-0.241002,-0.424945
2.55976,-0.434933,-0.477568
2.55693,-0.337177,-0.499545
2.56354,-0.243053,-0.524973
2.55379,-0.243434,-0.623283
2.56459,-0.155989,0.211282
2.56719,-0.252199,0.0482238
2.57396,-0.1594,0.0234059
2.56745,-0.347894,-0.0213443
2.57305,-0.16011,-0.0707501
2.56657,-0.254852,-0.140181
2.55769,-0.349254,-0.210599
2.55893,-0.160981,-0.258587
2.55915,-0.256235,-0.329793
2.55583,-0.351591,-0.401788
2.55318,-0.256673,-0.424945
2.55968,-0.353531,-0.500496
2.5581,-0.258384,-0.524174
2.55612,-0.259492,-0.624227
2.57844,-0.174074,0.117986
2.57294,-0.175191,0.0234059
2.56329,-0.363361,-0.0213278
2.55853,-0.268608,-0.0458929
2.56404,-0.17535,-0.0705306
2.56893,-0.271014,-0.140398
2.55747,-0.365223,-0.210761
2.55988,-0.176816,-0.258788
2.55753,-0.271932,-0.329793
2.56044,-0.178201,-0.354506
2.56145,-0.368392,-0.403019
2.55156,-0.272334,-0.424945
2.55939,-0.274389,-0.524773
2.56027,-0.275795,-0.625644
2.57931,-0.190038,0.118077
2.57384,-0.284783,0.0484107
2.5758,-0.191271,0.0234422
2.55507,-0.378203,-0.0212784
2.55683,-0.284301,-0.0458929
2.56093,-0.19093,-0.0704757
2.56728,-0.381063,-0.116132
2.56226,-0.286218,-0.140126
2.55715,-0.381202,-0.210924
2.55572,-0.288649,-0.425925
2.55712,-0.483071,-0.478653
2.56194,-0.385939,-0.501827
2.56057,-0.290419,-0.525372
2.5624,-0.29194,-0.626588
2.54737,-0.290228,-0.727238
2.5781,-0.205861,0.118077
2.5686,-0.206591,0.0233878
2.55802,-0.300334,-0.0459464
2.55971,-0.20664,-0.0704757
2.56244,-0.302168,-0.140235
2.55674,-0.397192,-0.211087
2.55752,-0.208216,-0.258788
2.55806,-0.209609,-0.354506
2.56357,-0.400866,-0.404096
2.55586,-0.304559,-0.426252
2.55411,-0.498752,-0.478653
2.55759,-0.401348,-0.501446
2.56555,-0.30694,-0.526771
2.5567,-0.307193,-0.625644
2.54845,-0.209179,-0.754463
2.57679,-0.221676,0.118077
2.56519,-0.315736,0.0483172
2.56629,-0.222262,0.0233787
2.55712,-0.316147,-0.0459642
2.55939,-0.222429,-0.0705032
2.55756,-0.317516,-0.140072
2.55523,-0.413031,-0.211168
2.5552,-0.223818,-0.258688
2.55504,-0.319331,-0.330174
2.55969,-0.225561,-0.354917
2.55297,-0.320113,-0.426089
2.55582,-0.515387,-0.479557
2.55701,-0.417349,-0.501827
2.56344,-0.323971,-0.627769
2.55087,-0.225188,-0.650024
2.55285,-0.225318,-0.756161
2.57637,-0.237575,0.118122
2.55825,-0.330828,0.0482238
2.56687,-0.238189,0.0233969
2.56295,-0.238592,-0.0706403
2.55557,-0.333203,-0.140072
2.56054,-0.239631,-0.164684
2.55855,-0.429692,-0.211656
2.55576,-0.239678,-0.258888
2.55303,-0.335003,-0.330174
2.55727,-0.24117,-0.35478
2.54559,-0.526356,-0.379541
2.54998,-0.335643,-0.425925
2.54876,-0.530258,-0.478834
2.55577,-0.33763,-0.525572
2.55052,-0.240983,-0.548798
2.54951,-0.240797,-0.755595
2.57686,-0.253574,0.118214
2.56038,-0.253442,0.0233515
2.55503,-0.347773,-0.0459999
2.56442,-0.25461,-0.0707226
2.55051,-0.348472,-0.139909
2.55704,-0.255139,-0.164556
2.55979,-0.446068,-0.211981
2.55977,-0.351877,-0.331319
2.55868,-0.448496,-0.404558
2.55764,-0.35263,-0.427559
2.55557,-0.449376,-0.502587
2.55656,-0.353709,-0.526171
2.56024,-0.355538,-0.628005
2.5683,-0.268653,0.117894
2.56773,-0.270089,0.0234332
2.5578,-0.364148,-0.046089
2.5648,-0.27055,-0.0707775
2.54931,-0.364256,-0.139964
2.55741,-0.271034,-0.164684
2.55211,-0.557413,-0.187525
2.55308,-0.461057,-0.211656
2.55757,-0.367577,-0.331319
2.55879,-0.464717,-0.405019
2.55503,-0.272812,-0.451972
2.54697,-0.463993,-0.501446
2.56016,-0.37023,-0.52737
2.57099,-0.286392,0.0234785
2.55552,-0.379836,-0.046089
2.57004,-0.287059,-0.0709695
2.56035,-0.476945,-0.116534
2.55591,-0.381217,-0.140452
2.56066,-0.287278,-0.165003
2.55645,-0.575942,-0.285235
2.55526,-0.383263,-0.331319
2.55338,-0.288311,-0.354917
2.54802,-0.575958,-0.38142
2.54841,-0.287931,-0.451106
2.54889,-0.480521,-0.502397
2.54427,-0.383885,-0.524573
2.57018,-0.302279,0.0234876
2.56823,-0.302823,-0.0709695
2.54757,-0.490757,-0.116087
2.56043,-0.397966,-0.140832
2.56182,-0.303336,-0.165195
2.55577,-0.59229,-0.28556
2.5509,-0.398628,-0.331065
2.55255,-0.30409,-0.355054
2.5459,-0.496152,-0.502397
2.55252,-0.401163,-0.526771
2.55646,-0.305009,-0.551521
2.56633,-0.318576,-0.0709695
2.5609,-0.414147,-0.140995
2.56486,-0.319667,-0.165515
2.55687,-0.51051,-0.212713
2.55428,-0.415228,-0.331828
2.54867,-0.3195,-0.35478
2.55852,-0.513488,-0.406404
2.5486,-0.319672,-0.451799
2.55098,-0.416975,-0.52697
2.54775,-0.319837,-0.550055
2.57223,-0.33457,0.0235421
2.56433,-0.334316,-0.0709695
2.56028,-0.430184,-0.141103
2.56186,-0.335269,-0.165451
2.56052,-0.527597,-0.213282
2.55113,-0.334362,-0.259491
2.55755,-0.431884,-0.332591
2.5496,-0.33552,-0.35519
2.54563,-0.624885,-0.38272
2.55726,-0.529577,-0.406712
2.55245,-0.336076,-0.452838
2.55223,-0.433276,-0.527769
2.54768,-0.335719,-0.550474
2.54653,-0.335523,-0.651992
2.56916,-0.350992,-0.0711616
2.56349,-0.446914,-0.141429
2.56569,-0.351795,-0.165834
2.55626,-0.543091,-0.213201
2.54479,-0.444568,-0.235056
2.55297,-0.350551,-0.259892
2.55974,-0.448424,-0.333227
2.55731,-0.352511,-0.356559
2.55686,-0.545877,-0.407174
2.56042,-0.449602,-0.4305
2.55619,-0.352538,-0.453877
2.54953,-0.448928,-0.527769
2.56597,-0.366608,-0.0711341
2.55284,-0.461215,-0.140995
2.55459,-0.366257,-0.165259
2.55094,-0.55834,-0.213038
2.54887,-0.461416,-0.23569
2.55471,-0.366774,-0.260293
2.55694,-0.464122,-0.333227
2.55314,-0.367913,-0.356285
2.55664,-0.465128,-0.430337
2.55983,-0.369059,-0.454917
2.54769,-0.464739,-0.527969
2.55477,-0.381018,-0.0708872
2.55291,-0.477421,-0.141158
2.55921,-0.382958,-0.165706
2.54163,-0.572667,-0.21255
2.54991,-0.477781,-0.236053
2.5593,-0.383475,-0.260996
2.55795,-0.480535,-0.333736
2.55279,-0.383866,-0.356559
2.55762,-0.481536,-0.43099
2.56141,-0.385345,-0.45561
2.54575,-0.480544,-0.528169
2.54687,-0.38343,-0.551731
2.5514,-0.396533,-0.0708598
2.54503,-0.492128,-0.140886
2.55977,-0.399115,-0.165898
2.54986,-0.493986,-0.236324
2.56083,-0.399785,-0.261397
2.55592,-0.49641,-0.333863
2.55822,-0.400749,-0.357653
2.55023,-0.593745,-0.407789
2.55849,-0.497975,-0.431644
2.56095,-0.40136,-0.455956
2.54253,-0.398747,-0.551312
2.55286,-0.412819,-0.0709695
2.55431,-0.414335,-0.165706
2.5544,-0.414853,-0.260996
2.55088,-0.511693,-0.333608
2.56353,-0.417713,-0.358748
2.53981,-0.607772,-0.406712
2.55442,-0.513469,-0.43148
2.56135,-0.417541,-0.456476
2.54873,-0.415757,-0.553197
2.55324,-0.428972,-0.0710518
2.55369,-0.430332,-0.165834
2.54556,-0.525642,-0.236506
2.55573,-0.431181,-0.261397
2.54964,-0.527738,-0.333863
2.55506,-0.432443,-0.357927
2.55702,-0.530335,-0.432461
2.5442,-0.431061,-0.552778
2.55002,-0.445821,-0.16577
2.555,-0.447197,-0.261598
2.54441,-0.542958,-0.333608
2.56017,-0.449483,-0.359021
2.55312,-0.44843,-0.455956
2.55902,-0.463594,-0.166537
2.55515,-0.463399,-0.261899
2.54394,-0.559199,-0.33399
2.56028,-0.465715,-0.359432
2.55128,-0.561886,-0.432624
2.5542,-0.464793,-0.456649
2.55617,-0.479802,-0.2623
2.54143,-0.575017,-0.334117
2.55932,-0.481782,-0.359706
2.53912,-0.575567,-0.431154
2.55614,-0.481368,-0.457515
2.55317,-0.495477,-0.2623
2.54655,-0.592623,-0.335262
2.55729,-0.497666,-0.359842
2.55024,-0.496478,-0.456996
2.55301,-0.511721,-0.262601
2.54672,-0.60916,-0.33577
2.54739,-0.511982,-0.358885
2.54425,-0.511534,-0.456476
2.55275,-0.527981,-0.262902
2.5439,-0.625012,-0.335898
2.53935,-0.526597,-0.3582
2.54395,-0.527736,-0.456996
2.55141,-0.544049,-0.263103
2.54675,-0.642307,-0.336788
2.53898,-0.542789,-0.358611
2.54413,-0.55884,-0.262702
2.54756,-0.659164,-0.337424
2.54163,-0.57466,-0.262802
2.53676,-0.673002,-0.336534
2.54179,-0.576095,-0.359979
2.53805,-0.590244,-0.262802
2.54882,-0.594154,-0.361484
2.54512,-0.609783,-0.361484
2.54326,-0.625861,-0.361758
2.53745,-0.640969,-0.361484
