2.07912,0.754683,-0.0257501
2.08174,0.747422,-0.0257501
2.08057,0.738812,-0.0257035
2.08811,0.741489,0.0257966
2.08691,0.73287,-0.0257501
2.0936,0.727022,-0.129069
2.09197,0.718282,-0.0257501
2.09825,0.712262,-0.0257966
2.09863,0.712389,-0.129069
2.09681,0.704027,-0.0257501
2.10293,0.69833,-0.0257966
2.09952,0.697196,-0.128836
2.0649,0.790573,-0.0643483
2.1018,0.689004,-0.0257501
2.1018,0.689004,0.0257501
2.10597,0.690373,-0.129069
2.10419,0.681663,-0.0257501
2.10837,0.683017,-0.129069
2.11025,0.675903,-0.0257966
2.11062,0.676024,-0.129069
2.07279,0.76963,-0.0643483
2.10866,0.667693,0.0257501
2.12047,0.671431,-0.129534
2.07935,0.763406,-0.0644646
2.1111,0.65996,0.0257501
2.12292,0.663654,-0.129534
2.08187,0.756505,-0.0644646
2.1171,0.654136,-0.0257966
2.08272,0.756813,-0.0128792
2.1171,0.654136,0.0257966
2.11366,0.653073,-0.128836
2.11937,0.646743,-0.0257966
2.08535,0.74954,-0.0128792
2.12356,0.648024,-0.129301
2.08334,0.740614,-0.0643483
2.12161,0.639341,-0.0257966
2.08795,0.742255,-0.0128792
2.12782,0.641213,-0.207451
2.12581,0.640607,-0.129301
2.08968,0.734664,-0.0644646
2.12766,0.633072,-0.0258432
2.09053,0.734963,-0.0128792
2.13005,0.633782,-0.207451
2.12421,0.632044,-0.129069
2.09524,0.736618,-0.116395
2.08468,0.724739,-0.0642319
2.09308,0.727661,-0.0128792
2.0978,0.729299,-0.116395
2.09489,0.719692,-0.0644646
2.1283,0.616717,-0.0257966
2.09952,0.721284,-0.0129024
2.1283,0.616717,0.0257966
2.13635,0.61905,-0.129534
2.08957,0.710532,-0.0642319
2.13022,0.610027,-0.0257966
2.09799,0.713397,-0.0128792
2.13646,0.611814,-0.207451
2.13022,0.610027,0.0257966
2.10149,0.714587,0.0387443
2.13444,0.611236,-0.129301
2.09893,0.713717,-0.116186
2.09216,0.702868,-0.0642319
2.13245,0.602215,-0.0257966
2.10438,0.706976,-0.0129024
2.09651,0.704333,0.0386047
2.14051,0.604493,-0.129534
2.10153,0.706019,-0.116186
2.07053,0.810182,-0.0517372
2.09851,0.696455,-0.0643483
2.13464,0.594396,-0.0257966
2.09937,0.696739,-0.012856
2.09908,0.696644,0.0386047
2.14271,0.596644,-0.129534
2.10411,0.698312,-0.116186
2.09713,0.687879,-0.0642319
2.14056,0.588,-0.0258432
2.10559,0.690652,-0.0128792
2.14056,0.588,0.0258432
2.14478,0.589161,-0.129534
2.14626,0.58232,-0.0258898
2.10774,0.684034,-0.0128792
2.10746,0.683942,0.0386745
2.14277,0.581374,-0.129301
2.11249,0.685575,-0.116395
2.06755,0.784562,-0.0514581
2.10569,0.674442,-0.0643483
2.11036,0.675937,-0.0128792
2.14461,0.573043,0.0258432
2.10626,0.674625,0.0386047
2.14499,0.573143,-0.129301
2.11511,0.677459,-0.116395
2.0668,0.775214,-0.051365
2.15047,0.566573,-0.0258898
2.11652,0.669773,-0.0129024
2.15286,0.567202,-0.207823
2.11623,0.669683,0.0387443
2.15856,0.568705,-0.129999
2.11746,0.670072,-0.116395
2.0695,0.767995,-0.051365
2.14836,0.558806,-0.0258432
2.12243,0.664315,-0.0129257
2.15848,0.561438,-0.208195
2.11923,0.663314,-0.18128
2.16033,0.56192,-0.129999
2.12337,0.664609,-0.116605
2.07565,0.762869,-0.0514581
2.11634,0.653904,-0.0644646
2.1504,0.550929,-0.0258432
2.12485,0.656532,-0.0129257
2.15667,0.552535,-0.207823
2.15427,0.551922,0.0258898
2.11692,0.654082,0.0386745
2.07674,0.754642,-0.102927
2.12579,0.656822,-0.116605
2.07467,0.753891,-0.051365
2.11479,0.645345,-0.0643483
2.15231,0.543419,-0.0258432
2.12713,0.64911,-0.0129257
2.15619,0.544398,0.0258898
2.11919,0.646688,0.0386745
2.16043,0.545469,-0.129766
2.12425,0.648232,-0.116395
2.08106,0.747996,-0.0514581
2.08799,0.742268,0
2.15807,0.536869,-0.0258898
2.12938,0.641682,-0.0129257
2.16047,0.537465,-0.207823
2.16195,0.537834,0.0259363
2.12526,0.640441,0.0387443
2.16619,0.538889,-0.129999
2.07989,0.739388,-0.051365
2.16761,0.531614,-0.0259829
2.1315,0.634616,-0.0129257
2.16998,0.532195,-0.208567
2.15984,0.529709,0.0258898
2.13211,0.634798,-0.181606
2.12737,0.633389,0.0387443
2.16797,0.531702,-0.129999
2.08817,0.734543,-0.103113
2.12861,0.633757,-0.116395
2.0861,0.733813,-0.0514581
2.13764,0.627927,-0.0129489
2.16804,0.523304,-0.208195
2.16566,0.522728,0.0259363
2.13442,0.62698,-0.181606
2.13352,0.626715,0.0388142
2.16602,0.522816,-0.129766
2.0984,0.729509,-0.103485
2.085,0.72485,-0.051365
2.09161,0.719792,0
2.1634,0.514995,-0.0258898
2.13961,0.621208,-0.0129489
2.13638,0.620271,-0.181606
2.13164,0.618894,0.0387443
2.17154,0.516933,-0.129999
2.13671,0.620367,-0.116605
2.08727,0.718296,-0.051365
2.17306,0.508886,-0.0259829
2.13802,0.612261,-0.0129257
2.13864,0.612437,-0.181606
2.13389,0.611077,0.0387443
2.17342,0.508971,-0.129999
2.13897,0.612532,-0.116605
2.09671,0.704806,0
2.17482,0.501297,-0.0259829
2.144,0.605882,-0.0129489
2.17332,0.50095,-0.208195
2.17482,0.501297,0.0259829
2.14076,0.604967,-0.181606
2.14371,0.6058,0.038884
2.17907,0.502277,-0.130231
2.10201,0.706589,-0.103299
2.14494,0.606148,-0.116814
2.09235,0.703341,-0.051365
2.09928,0.697117,0
2.18055,0.494207,-0.0260295
2.14053,0.596439,-0.282841
2.1462,0.59802,-0.0129489
2.17902,0.493862,-0.208567
2.13821,0.595792,0.0387443
2.18479,0.49517,-0.130464
2.10459,0.69888,-0.103299
2.13945,0.596138,-0.116395
2.09871,0.696928,-0.0514581
2.10146,0.690519,0
2.17428,0.485611,-0.0259363
2.14807,0.591275,-0.0129489
2.18056,0.487015,-0.208567
2.10392,0.691328,-0.154859
2.14483,0.590382,-0.181606
2.14392,0.590133,0.0388142
2.17854,0.486564,-0.129999
2.10677,0.692265,-0.103299
2.14516,0.590474,-0.116605
2.07513,0.787855,-0.0387443
2.14153,0.58144,-0.064581
2.10766,0.684414,0
2.18377,0.479735,-0.0260295
2.15398,0.584821,-0.0129722
2.10632,0.683979,-0.154859
2.14688,0.582891,-0.181606
2.14211,0.581598,0.0387443
2.18803,0.480669,-0.130464
2.11298,0.686141,-0.103485
2.14721,0.582982,-0.116605
2.10329,0.682994,-0.0514581
2.07426,0.778839,-0.0386745
2.14751,0.574621,-0.0646974
2.11396,0.677906,0
2.18161,0.470884,-0.0259829
2.15039,0.575391,-0.283346
2.15225,0.575888,-0.0129489
2.10958,0.676502,0.0515511
2.18161,0.470884,0.0259829
2.10881,0.676255,-0.154859
2.15285,0.57605,-0.181931
2.15196,0.57581,0.038884
2.18587,0.471804,-0.130231
2.11548,0.678392,-0.103485
2.14933,0.575109,-0.116605
2.07697,0.771593,-0.0386745
2.1125,0.669314,0
2.19106,0.464926,-0.026076
2.15239,0.567881,-0.283346
2.15038,0.567351,-0.0129257
2.11116,0.668889,-0.154859
2.15782,0.569315,0.0389538
2.19532,0.465829,-0.130697
2.11022,0.668589,-0.103113
2.15905,0.56964,-0.117023
2.07965,0.764339,-0.0386745
2.1476,0.558608,-0.064581
2.11483,0.661937,0
2.19267,0.457275,-0.026076
2.16009,0.561856,-0.0129722
2.11348,0.661516,-0.154859
2.15592,0.560773,0.038884
2.19302,0.457348,-0.130464
2.11635,0.662413,-0.103299
2.15716,0.561095,-0.116814
2.08593,0.758806,-0.0387443
2.15331,0.552477,-0.0646974
2.11319,0.653738,0
2.16581,0.555684,-0.0129954
2.19263,0.449685,-0.208938
2.11948,0.655684,-0.155138
2.15867,0.553851,-0.181931
2.16164,0.554615,0.0389538
2.20235,0.451678,-0.130929
2.12235,0.656573,-0.103485
2.16288,0.554932,-0.117023
2.07325,0.754194,-0.0898817
2.12026,0.655925,-0.0516442
2.0887,0.751155,-0.0387443
2.1592,0.54556,-0.0648137
2.11557,0.645988,0
2.19581,0.441956,-0.026076
2.15821,0.545311,-0.283346
2.16396,0.546762,-0.0129722
2.19817,0.44243,-0.20931
2.11882,0.646981,0.0515511
2.12187,0.64791,-0.155138
2.15682,0.544958,-0.181606
2.15979,0.545708,0.038884
2.20399,0.443602,-0.130929
2.12345,0.648394,0.129301
2.12857,0.649956,-0.103671
2.1649,0.547,-0.117023
2.076,0.746589,-0.0898817
2.12647,0.649317,-0.0517372
2.08741,0.742884,-0.0386745
2.161,0.538397,-0.0648137
2.12536,0.64128,0
2.19727,0.434673,-0.026076
2.16576,0.539583,-0.0129722
2.12479,0.641107,0.0516442
2.19727,0.434673,0.026076
2.124,0.640871,-0.155138
2.16635,0.539731,-0.182256
2.16158,0.538543,0.038884
2.19762,0.434742,-0.130464
2.13071,0.642894,-0.103671
2.1667,0.539819,-0.117023
2.08223,0.741041,-0.0900445
2.11713,0.638797,-0.0514581
2.08622,0.734265,-0.0386047
2.12375,0.632715,0
2.19877,0.427,-0.026076
2.16573,0.531554,-0.283851
2.16763,0.53202,-0.0129722
2.20113,0.427458,-0.20931
2.12623,0.633452,-0.155138
2.16733,0.531947,0.0389538
2.20696,0.42859,-0.130929
2.12911,0.634311,-0.103485
2.08104,0.732441,-0.0898817
2.12318,0.632544,-0.0515511
2.0889,0.726614,-0.0386047
2.16868,0.523859,-0.0649301
2.1299,0.626055,0
2.21211,0.421183,-0.0262157
2.17734,0.52595,-0.0130187
2.13291,0.626941,-0.239469
2.20659,0.420133,-0.209682
2.20032,0.418938,0.026076
2.12471,0.62453,-0.154859
2.16927,0.524001,0.0389538
2.21244,0.421246,-0.131162
2.13142,0.626504,-0.103485
2.16663,0.523362,-0.116814
2.08748,0.726122,-0.0900445
2.12932,0.625886,-0.0516442
2.09508,0.720984,-0.0386745
2.17041,0.516664,-0.0649301
2.12812,0.617873,0
2.2017,0.411639,-0.026076
2.17907,0.518726,-0.0130187
2.21189,0.413544,-0.210054
2.20563,0.412374,0.0261226
2.12677,0.61748,-0.154859
2.16801,0.516092,-0.181931
2.171,0.516804,0.0389538
2.21382,0.413906,-0.131162
2.14116,0.62166,-0.103857
2.16835,0.516174,-0.116814
2.0861,0.717895,-0.0898817
2.13138,0.618821,-0.0516442
2.10137,0.714954,-0.0387443
2.1683,0.508171,-0.0648137
2.13411,0.611542,0
2.21099,0.405393,-0.0261692
2.17118,0.508845,-0.283851
2.18087,0.511116,-0.0130187
2.1333,0.611311,-0.239041
2.2094,0.405102,-0.209682
2.12891,0.610052,-0.154859
2.16889,0.508309,0.038884
2.09738,0.713598,-0.141986
2.21133,0.405455,-0.130929
2.13564,0.61198,-0.103485
2.17792,0.510424,-0.117233
2.08859,0.710608,-0.0898817
2.13353,0.611376,-0.0516442
2.09627,0.705066,-0.0386047
2.18175,0.503297,-0.0651628
2.13623,0.60409,0
2.21239,0.397674,-0.0261692
2.17681,0.502156,-0.284356
2.17874,0.502603,-0.0129954
2.1316,0.60278,-0.238612
2.21864,0.398798,-0.210425
2.1395,0.605015,0.0517372
2.21239,0.397674,0.0261692
2.13487,0.603705,-0.155138
2.17845,0.502535,0.0390236
2.09986,0.706274,-0.141986
2.21666,0.398441,-0.131162
2.17308,0.501296,0.0908587
2.09485,0.704588,-0.0900445
2.1318,0.602839,-0.0515511
2.10251,0.699005,-0.0386745
2.1757,0.493908,-0.0649301
2.13832,0.596629,0
2.21377,0.389949,-0.0261692
2.18048,0.494994,-0.0129954
2.14135,0.597473,-0.239469
2.22002,0.391051,-0.210425
2.13775,0.596468,0.0516442
2.21377,0.389949,0.0261692
2.1408,0.597321,-0.155417
2.18019,0.494927,0.0390236
2.09474,0.696421,-0.141474
2.21804,0.390701,-0.131162
2.14371,0.598131,-0.103671
2.0973,0.697271,-0.0900445
2.13775,0.596468,-0.0516442
2.11242,0.694527,-0.0388142
2.13644,0.588472,0
2.21505,0.382605,-0.0261692
2.1013,0.690873,0.012856
2.18992,0.489505,-0.0130419
2.14332,0.590368,-0.239469
2.22131,0.383686,-0.210425
2.14277,0.590218,-0.155417
2.18572,0.488566,0.0390934
2.10462,0.691964,-0.141986
2.22325,0.384022,-0.131394
2.13797,0.588896,-0.103299
2.17916,0.4871,-0.117023
2.0958,0.689064,-0.0898817
2.13971,0.589375,-0.0516442
2.11114,0.685545,-0.0387443
2.17909,0.478706,-0.0649301
2.14244,0.581686,0
2.21643,0.374484,-0.0261692
2.10382,0.683167,0.012856
2.18779,0.480617,-0.0130187
2.14547,0.582509,-0.239469
2.2227,0.375542,-0.210425
2.22038,0.37515,0.0262157
2.14107,0.581315,-0.155138
2.18836,0.480743,-0.182907
2.1875,0.480552,0.0390934
2.09955,0.68178,-0.141474
2.22858,0.376537,-0.131627
2.15169,0.584197,-0.103857
2.18483,0.479967,-0.117233
2.09831,0.681378,-0.0898817
2.138,0.580481,-0.0515511
2.11352,0.678171,-0.0387443
2.18075,0.471096,-0.0649301
2.14446,0.574204,0
2.22957,0.368702,-0.0263088
2.19728,0.474666,-0.0130652
2.14365,0.573987,-0.239041
2.224,0.367781,-0.210425
2.14388,0.574048,0.0516442
2.22167,0.367397,0.0262157
2.14694,0.574869,-0.155417
2.18613,0.472259,-0.182582
2.18916,0.472913,0.0390934
2.10192,0.674446,-0.141474
2.15371,0.576682,-0.103857
2.1904,0.47318,-0.117442
2.10448,0.67527,-0.0900445
2.14388,0.574048,-0.0516442
2.11195,0.66995,-0.0386745
2.18621,0.464694,-0.0650464
2.15022,0.568111,0
2.22683,0.360668,-0.0262623
2.18904,0.465295,-0.284861
2.10842,0.668831,0.012856
2.19101,0.465714,-0.0130187
2.14554,0.566876,-0.239041
2.23307,0.361678,-0.211169
2.14963,0.567958,0.0517372
2.22683,0.360668,0.0262623
2.14884,0.567747,-0.155417
2.19159,0.465836,-0.182907
2.19072,0.465651,0.0390934
2.10414,0.667473,-0.141474
2.2311,0.361359,-0.131627
2.15948,0.570558,-0.104044
2.19196,0.465915,-0.117442
2.11052,0.669496,-0.0902073
2.14577,0.566936,-0.0516442
2.11809,0.66377,-0.0387443
2.19174,0.457878,-0.0651628
2.15993,0.562619,0
2.23597,0.354144,-0.0263554
2.11456,0.662664,0.0128792
2.20046,0.4597,-0.0130652
2.15135,0.560386,-0.239469
2.23431,0.353881,-0.211169
2.22807,0.352893,0.0262623
2.15467,0.561249,-0.155696
2.19624,0.45882,0.0391632
2.11789,0.663706,-0.142242
2.23629,0.354194,-0.131859
2.14985,0.559996,-0.103485
2.19357,0.458261,-0.117442
2.11284,0.662126,-0.0902073
2.14773,0.559443,-0.0516442
2.12039,0.656372,-0.0387443
2.19332,0.450224,-0.0651628
2.15413,0.553086,0
2.2372,0.346336,-0.0263554
2.11304,0.654095,0.012856
2.20205,0.452016,-0.0130652
2.1533,0.552872,-0.239469
2.23554,0.346079,-0.211169
2.15742,0.553931,0.0518303
2.23324,0.345725,0.0263088
2.15661,0.553724,-0.155696
2.19783,0.45115,0.0391632
2.11256,0.653947,-0.14173
2.23356,0.345774,-0.131627
2.15567,0.553481,-0.103671
2.19907,0.451404,-0.117651
2.11514,0.654746,-0.0902073
2.14967,0.551942,-0.0516442
2.12267,0.648967,-0.0387443
2.1988,0.443356,-0.0652792
2.15605,0.545564,0
2.23048,0.337329,-0.0262623
2.11914,0.647885,0.0128792
2.19969,0.443536,-0.0130419
2.15907,0.546329,-0.239897
2.23279,0.337679,-0.210797
2.15546,0.545416,0.0517372
2.23839,0.338526,0.0263554
2.15853,0.546193,-0.155696
2.20025,0.443649,-0.183233
2.19939,0.443476,0.0391632
2.11865,0.647737,-0.141986
2.24265,0.33917,-0.132092
2.16146,0.546933,-0.103857
2.20455,0.444515,-0.117861
2.15159,0.544435,-0.0516442
2.20033,0.435677,-0.0652792
2.1657,0.53997,0
2.2356,0.330125,-0.0263088
2.16096,0.538788,-0.239897
2.24184,0.331046,-0.211541
2.16123,0.538856,0.0518303
2.2356,0.330125,0.0263088
2.16042,0.538654,-0.155696
2.2057,0.43674,-0.183558
2.19701,0.435019,0.0390934
2.11326,0.638029,-0.141474
2.16335,0.539385,-0.103857
2.20608,0.436816,-0.117861
2.11966,0.639963,-0.0902073
2.15735,0.537889,-0.0517372
2.12715,0.634132,-0.0387443
2.20184,0.427994,-0.0652792
2.16369,0.531453,0
2.24862,0.324031,-0.0264485
2.20462,0.428534,-0.285871
2.20273,0.428168,-0.0130419
2.15897,0.530293,-0.239469
2.16699,0.532263,0.0519233
2.2407,0.32289,0.0263554
2.16229,0.53111,-0.155696
2.20721,0.429038,-0.183558
2.20244,0.428111,0.0391632
2.11929,0.63179,-0.14173
2.24497,0.323505,-0.132092
2.17298,0.533736,-0.10423
2.21152,0.429875,-0.11807
2.12188,0.632561,-0.0902073
2.12168,0.624445,-0.0386047
2.19939,0.419557,-0.0651628
2.1733,0.525779,0
2.24974,0.316181,-0.0264485
2.2061,0.420837,-0.285871
2.21207,0.421976,-0.0130884
2.16467,0.52369,-0.239897
2.24804,0.315942,-0.211912
2.24578,0.315624,0.026402
2.17189,0.525436,-0.156255
2.20869,0.421331,-0.183558
2.20785,0.42117,0.039233
2.12532,0.625515,-0.141986
2.25004,0.316223,-0.132324
2.17095,0.525209,-0.104044
2.213,0.422154,-0.11807
2.12791,0.626279,-0.0903702
2.16106,0.522815,-0.0517372
2.13537,0.620382,-0.0388142
2.2087,0.413348,-0.0653955
2.16734,0.516335,0
2.25479,0.308868,-0.0264951
2.17035,0.517051,-0.240326
2.24913,0.308092,-0.211912
2.16676,0.516195,0.0518303
2.2429,0.307239,0.0263554
2.16983,0.516926,-0.155975
2.21407,0.414352,-0.183884
2.21323,0.414196,0.0393028
2.13132,0.619206,-0.142242
2.25113,0.308366,-0.132324
2.17277,0.517627,-0.104044
2.20661,0.412956,-0.117651
2.12625,0.617732,-0.0902073
2.17065,0.517122,-0.0519233
2.13752,0.612925,-0.0388142
2.21013,0.405636,-0.0653955
2.17303,0.50968,0
2.24792,0.299938,-0.026402
2.16644,0.508134,-0.346194
2.13396,0.611905,0.0129024
2.2189,0.407245,-0.0131117
2.17215,0.509473,-0.240326
2.17244,0.509542,0.0519233
2.24792,0.299938,0.026402
2.1755,0.510261,-0.156255
2.20374,0.404462,-0.182907
2.21467,0.406468,0.0393028
2.13731,0.612863,-0.142497
2.17713,0.510641,0.130231
2.17845,0.510953,-0.10423
2.17244,0.509542,-0.0519233
2.14328,0.607296,-0.038884
2.21533,0.399399,-0.0655119
2.17072,0.501949,0
2.25282,0.29339,-0.0264485
2.16417,0.500435,-0.345579
2.21025,0.398483,-0.285871
2.22017,0.400271,-0.0131117
2.17761,0.503542,-0.240754
2.25112,0.293169,-0.211912
2.17403,0.502714,0.0519233
2.25282,0.29339,0.0264485
2.18098,0.504322,-0.156534
2.21677,0.399658,-0.183884
2.212,0.398798,0.039233
2.1277,0.60288,-0.14173
2.25708,0.293945,-0.132557
2.18394,0.505006,-0.104416
2.22109,0.400438,-0.118279
2.17013,0.501813,-0.0518303
2.13384,0.596581,-0.0386745
2.21277,0.390969,-0.0653955
2.18026,0.496144,0
2.26574,0.287033,-0.0265882
2.17747,0.495508,-0.347424
2.13798,0.597739,0.0129024
2.21761,0.391824,-0.0130884
2.1716,0.494173,-0.239897
2.26003,0.286311,-0.212656
2.18357,0.496897,0.0521094
2.25383,0.285525,0.0264485
2.21815,0.391918,-0.183884
2.22125,0.392466,0.0393726
2.13363,0.596525,-0.141986
2.26206,0.286567,-0.13279
2.174,0.49472,-0.103857
2.22248,0.392683,-0.118279
2.13624,0.597253,-0.0903702
2.14747,0.592318,-0.038884
2.21019,0.38256,-0.0652792
2.18198,0.48853,0
2.26672,0.279122,-0.0265882
2.17533,0.487041,-0.346809
2.22291,0.384762,-0.0131117
2.17331,0.486589,-0.239897
2.26102,0.278419,-0.212656
2.18139,0.488398,0.0520164
2.25879,0.278144,0.0264951
2.22261,0.38471,0.0393726
2.1434,0.591196,-0.142497
2.25908,0.278181,-0.132557
2.18352,0.488874,-0.10423
2.22777,0.385604,-0.118489
2.13446,0.58873,-0.0902073
2.18139,0.488398,-0.0520164
2.14953,0.584819,-0.038884
2.17976,0.480051,0
2.26769,0.271208,-0.0265882
2.18087,0.480295,-0.347424
2.14596,0.583848,0.0129257
2.23213,0.378338,-0.0131582
2.18276,0.480711,-0.240754
2.26198,0.270526,-0.212656
2.18308,0.480781,0.0520164
2.25974,0.270258,0.0264951
2.18225,0.480598,-0.156255
2.23182,0.378286,0.0395123
2.14545,0.583711,-0.142497
2.26797,0.271242,-0.133022
2.22517,0.377158,-0.118279
2.14421,0.583374,-0.090533
2.17918,0.479921,-0.0519233
2.14769,0.576276,-0.0388142
2.22464,0.369085,-0.0656282
2.18925,0.474133,0
2.26464,0.26283,-0.0265417
2.18254,0.47268,-0.347424
2.14412,0.575318,0.0129024
2.23343,0.370544,-0.0131582
2.18832,0.473931,-0.241183
2.25895,0.262169,-0.212284
2.18475,0.473158,0.0520164
2.26464,0.26283,0.0265417
2.18781,0.473822,-0.156534
2.22918,0.369839,0.0394424
2.14362,0.575184,-0.142242
2.18554,0.473331,0.130231
2.19469,0.475311,-0.104602
2.14624,0.575886,-0.090533
2.18084,0.472311,-0.0519233
2.15752,0.570445,-0.0389538
2.23387,0.362208,-0.065861
2.19097,0.466105,0
2.26957,0.254974,-0.0265882
2.18039,0.463854,-0.346809
2.22868,0.361366,-0.287386
2.14621,0.567455,0.0129024
2.23872,0.362995,-0.0131814
2.18615,0.465079,-0.240754
2.26781,0.254777,-0.213028
2.19038,0.465979,0.0521094
2.26162,0.254081,0.0264951
2.19344,0.46663,-0.156813
2.23447,0.362306,0.0395123
2.14571,0.567323,-0.142242
2.19641,0.467263,-0.104602
2.23569,0.362504,-0.118698
2.18255,0.464315,-0.0519233
2.15166,0.561269,-0.0388142
2.23111,0.354172,-0.0657446
2.1925,0.458837,0
2.27835,0.248314,-0.0266814
2.18578,0.457431,-0.347424
2.15195,0.561345,0.0129257
2.23201,0.354316,-0.0131349
2.18379,0.457013,-0.240326
2.2726,0.247687,-0.2134
2.19582,0.459532,0.0522025
2.2704,0.247447,0.0265882
2.19497,0.459354,-0.156813
2.23171,0.354268,0.0394424
2.15531,0.56222,-0.142753
2.27465,0.247911,-0.133255
2.23688,0.355089,-0.118698
2.14634,0.55988,-0.0903702
2.15748,0.55475,-0.038884
2.20193,0.452792,0
2.27523,0.239939,-0.0266348
2.1835,0.449002,-0.346809
2.1539,0.553829,0.0129257
2.23719,0.347135,-0.0131582
2.18926,0.450188,-0.240754
2.27742,0.24017,-0.213771
2.27921,0.240359,0.0266814
2.19656,0.451689,-0.156813
2.23689,0.347088,0.0395123
2.15339,0.553698,-0.142497
2.27153,0.23955,-0.133022
2.19171,0.450692,-0.10423
2.23811,0.347278,-0.118698
2.15989,0.55537,-0.0908587
2.1935,0.451058,-0.0521094
2.1594,0.547216,-0.038884
2.28799,0.233213,-0.0267745
2.1928,0.442943,-0.348039
2.24234,0.339924,-0.0131814
2.19472,0.443331,-0.241183
2.27032,0.231411,-0.213028
2.19898,0.444191,0.0522025
2.28003,0.232402,0.0266814
2.1903,0.442439,-0.156255
2.24599,0.340477,0.0396519
2.15918,0.547159,-0.142753
2.2803,0.232429,-0.133487
2.19585,0.44356,0.130464
2.20111,0.444621,-0.104602
2.23931,0.339464,-0.118698
2.15794,0.546846,-0.0906958
2.19506,0.443399,-0.0521094
2.16906,0.541612,-0.0390236
2.23074,0.330202,-0.0656282
2.20111,0.43663,0
2.28879,0.225224,-0.0267745
2.18658,0.433747,-0.346809
2.16159,0.539747,0.0129489
2.24747,0.33268,-0.0132047
2.19625,0.435667,-0.241183
2.27904,0.224265,-0.213771
2.20444,0.43729,0.0522955
2.28083,0.224441,0.0266814
2.19966,0.436343,-0.156813
2.24717,0.332634,0.0396519
2.16108,0.539618,-0.142753
2.28507,0.224859,-0.13372
2.2013,0.436669,0.130697
2.20657,0.437712,-0.104788
2.24443,0.332229,-0.118907
2.15984,0.539309,-0.0906958
2.19659,0.435734,-0.0521094
2.17094,0.534037,-0.0390236
2.23979,0.323556,-0.065861
2.1987,0.428179,0
2.29354,0.217611,-0.0268211
2.19972,0.428378,-0.348654
2.24244,0.323939,-0.288397
2.27981,0.216307,-0.213771
2.20595,0.429592,0.0522955
2.28956,0.217233,0.0267745
2.20509,0.429424,-0.157092
2.25227,0.32536,0.0397217
2.16295,0.532071,-0.142753
2.28584,0.21688,-0.13372
2.20282,0.428981,0.130697
2.20808,0.430007,-0.104788
2.24953,0.324963,-0.119117
2.15783,0.530811,-0.090533
2.20595,0.429592,-0.0522955
2.16881,0.525893,-0.0389538
2.24085,0.316128,-0.065861
2.2001,0.420886,0
2.19336,0.419596,-0.347424
2.2435,0.316502,-0.288397
2.25365,0.317932,-0.0132279
2.19526,0.41996,-0.240754
2.28448,0.20911,-0.214143
2.20736,0.422275,0.0522955
2.29027,0.20964,0.0267745
2.2065,0.42211,-0.157092
2.24938,0.317331,0.0396519
2.1647,0.524896,-0.142753
2.29053,0.209663,-0.133952
2.20949,0.422682,-0.104788
2.2506,0.317502,-0.119117
2.16734,0.525537,-0.0908587
2.17841,0.520177,-0.0390934
2.23798,0.30776,-0.0657446
2.20942,0.41468,0
2.29896,0.202346,-0.0268676
2.1987,0.412667,-0.348039
2.25474,0.310064,-0.0132279
2.20453,0.413762,-0.241611
2.28122,0.200785,-0.213771
2.20882,0.414568,0.0522955
2.29099,0.201644,0.0267745
2.25444,0.310022,0.0397217
2.16264,0.51641,-0.142497
2.28727,0.201317,-0.13372
2.21096,0.414968,-0.104788
2.25565,0.310189,-0.119326
2.16528,0.51704,-0.0906958
2.20489,0.41383,-0.0522025
2.18022,0.512569,-0.0390934
2.25093,0.301538,-0.0660937
2.20692,0.40624,0
2.19624,0.404274,-0.347424
2.16883,0.509893,0.0129489
2.20596,0.406064,-0.241611
2.28588,0.193156,-0.214143
2.21419,0.407578,0.0523886
2.29168,0.193646,0.0267745
2.20939,0.406695,-0.157092
2.25551,0.30215,0.0397217
2.16831,0.509771,-0.142753
2.28796,0.193331,-0.13372
2.21239,0.407247,-0.104788
2.25276,0.301782,-0.119117
2.16707,0.509479,-0.0906958
2.20633,0.40613,-0.0522025
2.1781,0.504055,-0.0390236
2.25197,0.293679,-0.0660937
2.21226,0.399245,0
2.30031,0.186291,-0.0268676
2.19764,0.396605,-0.347424
2.1706,0.502319,0.0129489
2.26478,0.29535,-0.0132744
2.21128,0.399068,-0.242039
2.28257,0.184854,-0.213771
2.2156,0.399847,0.0523886
2.29633,0.185968,0.0268211
2.21473,0.39969,-0.157371
2.25336,0.29386,-0.185511
2.26051,0.294793,0.0397915
2.17008,0.502199,-0.142753
2.30056,0.186311,-0.134417
2.21638,0.399988,0.131162
2.21773,0.400232,-0.104974
2.17273,0.502812,-0.0908587
2.18392,0.496575,-0.0390934
2.24911,0.284529,-0.0659773
2.21378,0.390748,0
2.20693,0.389539,-0.348654
2.25174,0.284861,-0.288902
2.17251,0.493982,0.0129489
2.2128,0.390575,-0.242039
2.29518,0.177008,-0.214887
2.21712,0.391338,0.0523886
2.305,0.177765,0.0269142
2.21625,0.391183,-0.157371
2.26163,0.286112,0.0397915
2.17588,0.494749,-0.143009
2.30126,0.177477,-0.134417
2.2179,0.391475,0.131162
2.21925,0.391714,-0.104974
2.26283,0.286264,-0.119535
2.17464,0.494467,-0.0908587
2.21712,0.391338,-0.0523886
2.18546,0.489711,-0.0390934
2.25,0.277461,-0.0659773
2.21894,0.384474,0
2.30953,0.170818,-0.0269608
2.20814,0.382603,-0.348654
2.26282,0.279042,-0.0132512
2.21009,0.382941,-0.241611
2.29175,0.169502,-0.214515
2.22228,0.385052,0.0524816
2.30555,0.170522,0.0269142
2.2214,0.3849,-0.15765
2.26327,0.279098,-0.186162
2.26648,0.279494,0.0398613
2.17353,0.487037,-0.142753
2.3018,0.170246,-0.134417
2.21912,0.384505,0.131162
2.22047,0.384739,-0.104974
2.17229,0.486758,-0.0906958
2.19107,0.482941,-0.0391632
2.25889,0.270557,-0.0662101
2.22421,0.377395,0
2.21726,0.376215,-0.349884
2.27172,0.272094,-0.0132977
2.21534,0.37589,-0.242039
2.29233,0.161502,-0.214515
2.22755,0.377962,0.0525747
2.30613,0.162474,0.0269142
2.22666,0.377811,-0.157929
2.27142,0.272057,0.0399311
2.19081,0.482884,-0.143777
2.30637,0.162491,-0.13465
2.22438,0.377425,0.131394
2.22574,0.377655,-0.10516
2.18568,0.481753,-0.0911843
2.19274,0.475289,-0.0391632
2.26379,0.263131,-0.0663264
2.21855,0.368473,-0.349884
2.18522,0.473658,0.0129954
2.26471,0.263238,-0.0132512
2.21271,0.367503,-0.241611
2.29288,0.153499,-0.214515
2.2328,0.370839,0.0526678
2.30668,0.154423,0.0269142
2.22403,0.369382,-0.15765
2.26912,0.263751,-0.186487
2.27235,0.264126,0.0399311
2.18858,0.474388,-0.143521
2.30692,0.154439,-0.13465
2.22569,0.369658,0.131394
2.22704,0.369883,-0.10516
2.26958,0.263804,-0.119745
2.17954,0.472427,-0.0908587
2.21702,0.368218,-0.0522955
2.19438,0.467632,-0.0391632
2.26867,0.255676,-0.0664428
2.22679,0.361858,0
2.30721,0.14637,-0.0269142
2.21202,0.359459,-0.348654
2.27754,0.256675,-0.0133209
2.21791,0.360415,-0.242039
2.30135,0.145999,-0.215258
2.23803,0.363685,0.0527608
2.31519,0.146877,0.0270073
2.22924,0.362257,-0.157929
2.27003,0.255829,-0.186487
2.28121,0.257089,0.0400707
2.19023,0.466746,-0.143521
2.31143,0.146638,-0.134883
2.23091,0.362527,0.131627
2.22832,0.362107,-0.10516
2.27446,0.256328,-0.119954
2.18508,0.46565,-0.0910215
2.22619,0.36176,-0.0524816
2.19992,0.460789,-0.039233
2.26955,0.247754,-0.0664428
2.23594,0.355338,0
2.31968,0.139033,-0.0270539
2.21717,0.352355,-0.349269
2.27206,0.248028,-0.290922
2.27843,0.248723,-0.0133209
2.21915,0.35267,-0.242039
2.3098,0.138441,-0.216002
2.23928,0.35587,0.0527608
2.31968,0.139033,0.0270539
2.23049,0.354473,-0.157929
2.27017,0.247821,0.0398613
2.18403,0.45746,-0.143009
2.2361,0.355364,0.131859
2.26863,0.247654,0.0929754
2.23352,0.354953,-0.105346
2.27137,0.247953,-0.119745
2.18669,0.458019,-0.0910215
2.22744,0.353987,-0.0524816
2.1976,0.4523,-0.0391632
2.27438,0.24025,-0.0665591
2.23321,0.346917,0
2.32414,0.13116,-0.0271004
2.2262,0.345826,-0.350499
2.27928,0.240768,-0.0133209
2.22037,0.344921,-0.242039
2.31424,0.130601,-0.216374
2.24447,0.348664,0.0528539
2.32015,0.130934,0.0270539
2.2396,0.347909,-0.158487
2.28295,0.241155,0.0400707
2.19343,0.451443,-0.143521
2.30841,0.130272,-0.13465
2.23338,0.346943,0.131627
2.23869,0.347767,-0.105533
2.28017,0.240862,-0.120163
2.19219,0.451188,-0.0911843
2.22471,0.345595,-0.0523886
2.20308,0.44542,-0.039233
2.27122,0.231905,-0.0664428
2.23441,0.339121,0
2.32459,0.123048,-0.0271004
2.22348,0.337462,-0.349884
2.27613,0.232405,-0.0132977
2.22549,0.337767,-0.242468
2.30673,0.122102,-0.21563
2.23776,0.339629,0.0526678
2.32459,0.123048,0.0271004
2.2408,0.340091,-0.158487
2.28776,0.233593,0.0401405
2.20282,0.445367,-0.144032
2.31284,0.122426,-0.134883
2.23989,0.339952,-0.105533
2.24131,0.340167,0.27835
2.27655,0.232449,0.186813
2.19767,0.444327,-0.0913472
2.22985,0.338429,-0.0524816
2.276,0.224367,-0.0665591
2.23954,0.331905,0
2.23247,0.330857,-0.351113
2.28887,0.225636,-0.0133674
2.23059,0.330579,-0.242896
2.3151,0.114442,-0.216374
2.24289,0.332401,0.0527608
2.32101,0.114735,0.0270539
2.23408,0.331096,-0.157929
2.28856,0.225605,0.0401405
2.20044,0.436897,-0.143777
2.32522,0.114943,-0.13558
2.24365,0.332514,0.132092
2.24107,0.332131,-0.105533
2.27782,0.224546,-0.119954
2.19921,0.436652,-0.0913472
2.21006,0.430794,-0.0393028
2.28473,0.217178,-0.0667919
2.24464,0.324658,0
2.32539,0.106816,-0.0271004
2.22579,0.321931,-0.349884
2.28964,0.217645,-0.0133674
2.23173,0.322791,-0.242896
2.31548,0.106361,-0.216374
2.25195,0.325715,0.0529469
2.33338,0.107183,0.0271936
2.23918,0.323868,-0.158208
2.28209,0.216927,-0.187138
2.29331,0.217994,0.0402103
2.20196,0.429214,-0.143777
2.3256,0.106826,-0.13558
2.2448,0.324681,0.132092
2.27982,0.216712,0.0933011
2.24221,0.324307,-0.105533
2.28654,0.21735,-0.120373
2.19288,0.427444,-0.0910215
2.29172,0.217843,0.419723
2.24008,0.323998,-0.0526678
2.21548,0.423828,-0.0393726
2.28547,0.209201,-0.0667919
2.2418,0.316262,0
2.33774,0.0992064,-0.0272401
2.2269,0.314159,-0.349884
2.29039,0.209651,-0.0133674
2.23285,0.314998,-0.242896
2.3238,0.0986148,-0.217117
2.25703,0.318411,0.05304
2.33374,0.0990369,0.0271936
2.29008,0.209622,0.0401405
2.20344,0.421525,-0.143777
2.32995,0.098876,-0.135813
2.24592,0.316842,0.132092
2.25124,0.317594,-0.105905
2.28729,0.209367,-0.120373
2.20613,0.422039,-0.09151
2.2412,0.316176,-0.0526678
2.21695,0.416091,-0.0393726
2.29416,0.201922,-0.0670246
2.25082,0.309524,0
2.23581,0.30746,-0.351113
2.29907,0.202355,-0.0134139
2.23393,0.307202,-0.242896
2.32413,0.0905021,-0.217117
2.25813,0.31053,0.05304
2.33807,0.091045,0.0272401
2.24929,0.309313,-0.158766
2.29478,0.201977,0.0402103
2.2049,0.41383,-0.143777
2.32629,0.0905864,-0.13558
2.24701,0.309,0.132092
2.25234,0.309733,-0.105905
2.29596,0.202081,-0.120791
2.20759,0.414335,-0.09151
2.23832,0.307806,-0.0525747
2.22225,0.409464,-0.0394424
2.28684,0.193641,-0.0667919
2.2558,0.302591,0
2.24073,0.300571,-0.351728
2.20681,0.40662,0.0130419
2.29973,0.194732,-0.0134139
2.23494,0.299794,-0.242896
2.31645,0.0825125,-0.216374
2.25122,0.301978,0.0528539
2.34236,0.0834351,0.0272867
2.25426,0.302385,-0.159045
2.30341,0.195043,0.04035
2.21018,0.407241,-0.144032
2.33057,0.0830154,-0.135813
2.25198,0.30208,0.132324
2.25335,0.302264,-0.105905
2.26259,0.303503,0.2803
2.20895,0.407014,-0.09151
2.29149,0.18598,-0.0669082
2.28704,0.185618,-0.458915
2.24891,0.293679,0
2.34663,0.0753861,-0.0273333
2.24961,0.293771,-0.352958
2.21216,0.399625,0.0130652
2.23991,0.292505,-0.243325
2.32469,0.0746812,-0.217117
2.26019,0.295153,0.05304
2.33864,0.0751292,0.0272401
2.24738,0.29348,-0.158487
2.30009,0.186677,0.0402802
2.21552,0.400232,-0.144288
2.33484,0.0750072,-0.136045
2.2649,0.295767,0.133022
2.25439,0.294396,-0.105905
2.2933,0.186127,-0.120582
2.29678,0.186409,0.188115
2.21429,0.400011,-0.0916728
2.24433,0.293082,-0.0526678
2.22505,0.393938,-0.0394424
2.29611,0.178289,-0.0670246
2.26182,0.287339,0
2.34288,0.0670793,-0.0272867
2.23886,0.284421,-0.351113
2.21354,0.3919,0.0130652
2.24487,0.285185,-0.243753
2.32494,0.0665655,-0.217117
2.26518,0.287765,0.053133
2.34688,0.0671937,0.0273333
2.25235,0.286136,-0.158766
2.30139,0.178699,-0.18844
2.22083,0.393192,-0.144544
2.33508,0.066856,-0.136045
2.26196,0.287356,0.13279
2.25937,0.287027,-0.106091
2.3019,0.178738,-0.121001
2.26072,0.287198,0.279812
2.29742,0.17839,0.188115
2.21174,0.391581,-0.09151
2.25328,0.286253,-0.0528539
2.22641,0.386169,-0.0394424
2.30071,0.170569,-0.067141
2.26281,0.279442,0
2.24768,0.277574,-0.352343
2.25374,0.278322,-0.24461
2.3371,0.0587503,-0.218233
2.3511,0.0591022,0.0273798
2.26126,0.27925,-0.159324
2.30532,0.170911,0.04035
2.21826,0.384755,-0.144288
2.34728,0.0590062,-0.136743
2.26295,0.279459,0.13279
2.29978,0.170499,0.0939524
2.26036,0.279139,-0.106091
2.3065,0.170998,-0.12121
2.22097,0.385225,-0.0918356
2.25426,0.278386,-0.0528539
2.22775,0.378395,-0.0394424
2.30129,0.162536,-0.067141
2.26774,0.272018,0
2.35529,0.0509809,-0.0274264
2.24864,0.269726,-0.352343
2.31021,0.163166,-0.0134604
2.25075,0.269979,-0.244181
2.34127,0.0506775,-0.218604
2.27507,0.272896,0.0533191
2.26618,0.27183,-0.159603
2.30656,0.162908,-0.188766
2.22746,0.378346,-0.1448
2.34348,0.0507253,-0.13651
2.25994,0.271082,0.132557
2.30833,0.163033,0.0942781
2.26529,0.271723,-0.106277
2.26661,0.271881,0.2803
2.30656,0.162908,0.188766
2.2223,0.37747,-0.0918356
2.233,0.371274,-0.0395123
2.29785,0.154236,-0.0670246
2.26073,0.263176,0
2.24956,0.261876,-0.352343
2.31475,0.15537,-0.0134836
2.25168,0.262123,-0.244181
2.33745,0.0424339,-0.218233
2.26807,0.26403,0.053133
2.35945,0.0428333,0.027473
2.26712,0.26392,-0.159603
2.34364,0.0425463,-0.13651
2.26881,0.264117,0.133022
2.26225,0.263353,-0.106091
2.31162,0.15516,-0.121419
2.27149,0.264428,0.280787
2.30712,0.154858,0.188766
2.22755,0.370367,-0.0919985
2.26409,0.263568,-0.05304
2.23823,0.364119,-0.0395821
2.30636,0.146721,-0.0672573
2.30167,0.146423,-0.461268
2.26164,0.255283,0
2.35559,0.0345378,-0.0274264
2.25439,0.254465,-0.352958
2.22274,0.361599,0.0130884
2.25653,0.254707,-0.24461
2.34157,0.0343322,-0.218604
2.27692,0.257008,0.0533191
2.35559,0.0345378,0.0274264
2.26406,0.255556,-0.159324
2.31162,0.147056,-0.189091
2.31896,0.147522,0.0405594
2.23005,0.362787,-0.1448
2.35176,0.0344817,-0.136976
2.27368,0.256643,0.133255
2.2711,0.256351,-0.106463
2.30816,0.146836,-0.12121
2.31162,0.147056,0.189091
2.22883,0.362589,-0.0919985
2.32097,0.14765,0.424028
2.26897,0.256111,-0.053133
2.23949,0.356303,-0.0395821
2.30686,0.138669,-0.0672573
2.25534,0.246601,-0.63512
2.27047,0.248256,0
2.35969,0.0263591,-0.027473
2.25527,0.246593,-0.352958
2.22399,0.353837,0.0130884
2.31977,0.139445,-0.0135069
2.25741,0.246828,-0.24461
2.34566,0.0262023,-0.218976
2.28178,0.249492,0.0534122
2.36369,0.0264037,0.0275195
2.2689,0.248085,-0.159603
2.31212,0.138985,-0.189091
2.32345,0.139666,0.0406292
2.23524,0.355628,-0.145056
2.34787,0.026227,-0.136743
2.27457,0.248704,0.133255
2.26801,0.247987,-0.106277
2.31663,0.139256,-0.121629
2.31212,0.138985,0.189091
2.22613,0.354178,-0.0918356
2.32147,0.139547,0.424028
2.27383,0.248623,-0.0532261
2.31531,0.131068,-0.06749
2.2753,0.24075,0
2.36377,0.0181533,-0.0275195
2.26004,0.239136,-0.353573
2.25826,0.238947,-0.24461
2.3537,0.0180759,-0.21972
2.27866,0.241106,0.0533191
2.36777,0.018184,0.0275661
2.27372,0.240584,-0.159882
2.31657,0.131139,-0.189416
2.32392,0.131556,0.0406292
2.23647,0.347823,-0.145056
2.35993,0.0181238,-0.137441
2.28336,0.241603,0.13372
2.31437,0.131015,0.0944409
2.27681,0.24091,-0.106649
2.31711,0.13117,-0.121629
2.27808,0.241044,0.281274
2.31657,0.131139,0.189416
2.23525,0.347634,-0.0921613
2.32587,0.131666,0.424745
2.27866,0.241106,-0.0533191
2.23797,0.340059,-0.0395123
2.31176,0.122773,-0.0673737
2.28408,0.23362,0
2.36382,0.00990142,-0.0275195
2.26873,0.232049,-0.354803
2.23036,0.338903,0.0131117
2.32069,0.123247,-0.0135069
2.25908,0.231062,-0.24461
2.35375,0.00985923,-0.21972
2.28347,0.233556,0.0534122
2.36782,0.00991817,0.0275661
2.27455,0.232645,-0.159882
2.23341,0.339366,0.0657446
2.32437,0.123442,0.0406292
2.23767,0.340014,-0.145056
2.35599,0.00986861,-0.137208
2.27625,0.232818,0.133255
2.3228,0.123359,0.0947666
2.28161,0.233367,-0.106835
2.32154,0.123292,-0.121838
2.28286,0.233494,0.281762
2.23645,0.339829,-0.0921613
2.27551,0.232743,-0.0532261
2.32016,0.115099,-0.0676064
2.26546,0.223728,-0.637276
2.28489,0.225646,0
2.37184,0.00165618,-0.0276127
2.27346,0.224517,-0.355418
2.23549,0.331703,0.0131349
2.3291,0.115542,-0.0135534
2.35377,0.00164356,-0.21972
2.28825,0.225978,0.0535052
2.37584,0.00165897,0.0276592
2.28329,0.225488,-0.16044
2.23458,0.331568,0.0657446
2.24279,0.332787,-0.145312
2.35601,0.00164513,-0.137208
2.28102,0.225264,0.133487
2.27843,0.225009,-0.106649
2.32594,0.115386,-0.122047
2.28761,0.225915,0.282249
2.3254,0.115358,0.190067
2.24158,0.332607,-0.0923241
2.33066,0.11562,0.425463
2.27631,0.224799,-0.0532261
2.25216,0.326147,-0.0397217
2.31256,0.106632,-0.0673737
2.27769,0.216911,0
2.26636,0.215831,-0.354188
2.24059,0.324472,0.0131582
2.36172,-0.0065944,-0.220463
2.293,0.218369,0.0535983
2.37183,-0.00662262,0.0276127
2.28009,0.217139,-0.160161
2.24394,0.324957,-0.145312
2.36798,-0.00661187,-0.137906
2.28974,0.218058,0.133952
2.3236,0.10714,0.0947666
2.28318,0.217433,-0.106835
2.31835,0.106898,-0.121629
2.32578,0.107241,0.190067
2.23877,0.324208,-0.0921613
2.28106,0.217231,-0.0533191
2.32489,0.0994743,-0.0677228
2.27077,0.208654,-0.638354
2.31989,0.0992606,-0.464406
2.28238,0.209722,0
2.3678,-0.0144641,-0.0275661
2.26706,0.208314,-0.354188
2.24165,0.317039,0.0131582
2.33782,0.100028,-0.0135999
2.26926,0.208516,-0.245466
2.36169,-0.0144268,-0.220463
2.29371,0.210763,0.0535983
2.37579,-0.0145129,0.0276592
2.2808,0.209576,-0.160161
2.32613,0.0995273,-0.190067
2.36794,-0.014465,-0.137906
2.29443,0.210829,0.134185
2.32794,0.0996048,0.0949294
2.28389,0.20986,-0.106835
2.32668,0.0995508,-0.122047
2.28909,0.210338,0.282249
2.23588,0.316222,-0.0919985
2.32004,0.213182,0.624272
2.33533,0.0999211,0.42618
2.28575,0.210031,-0.0534122
2.32522,0.0913577,-0.0677228
2.27148,0.200726,-0.638354
2.32022,0.0911614,-0.464406
2.28709,0.202105,0
2.37173,-0.0227682,-0.0276127
2.26778,0.200399,-0.354188
2.35764,-0.0226329,-0.220092
2.29444,0.202754,0.0535983
2.38373,-0.0228833,0.0277523
2.28947,0.202315,-0.160719
2.33384,0.0916965,0.0407688
2.2461,0.309674,-0.145312
2.36788,-0.0227312,-0.137906
2.29913,0.203169,0.134417
2.32827,0.0914775,0.0949294
2.29257,0.20259,-0.107208
2.32701,0.0914279,-0.122047
2.29377,0.202695,0.282737
2.33044,0.0915629,0.190393
2.24488,0.309506,-0.0923241
2.28249,0.201698,-0.0533191
2.2554,0.302938,-0.0397217
2.32952,0.0833841,-0.0678391
2.28778,0.194121,0
2.37963,-0.0311511,-0.0277058
2.27634,0.19315,-0.355418
2.33168,0.0834615,-0.296983
2.24381,0.301382,0.0131582
2.34246,0.0838473,-0.0136231
2.36551,-0.0309663,-0.220835
2.29911,0.195083,0.0536913
2.38763,-0.0312558,0.0277989
2.25508,0.302895,-0.145823
2.36379,-0.0309437,-0.137673
2.29585,0.194805,0.134185
2.33656,0.0836362,0.095255
2.29725,0.194924,-0.107394
2.3353,0.0835909,-0.122466
2.29842,0.195024,0.283224
2.33473,0.0835707,0.190718
2.24991,0.302201,-0.0924869
2.28318,0.19373,-0.0533191
2.26443,0.295706,-0.0398613
2.32581,0.0747176,-0.0677228
2.2767,0.184779,-0.639433
2.32866,0.0748089,-0.465975
2.30044,0.186706,0
2.3835,-0.0399392,-0.0277523
2.28097,0.185126,-0.356033
2.33594,0.0750428,-0.297488
2.24887,0.293674,0.0131814
2.34275,0.0752617,-0.0136231
2.36936,-0.0397023,-0.221207
2.29583,0.186332,0.0535983
2.3835,-0.0399392,0.0277523
2.29881,0.186574,-0.161277
2.33901,0.0751414,-0.191044
2.25618,0.294628,-0.145823
2.37564,-0.0398074,-0.138371
2.29654,0.18639,0.134185
2.33286,0.0749439,0.0950922
2.29396,0.18618,-0.107208
2.33958,0.0751598,-0.122675
2.29912,0.186599,0.283224
2.33502,0.0750134,0.190718
2.25497,0.294471,-0.0926498
2.31833,0.188158,0.623236
2.34413,0.0753058,0.427615
2.28786,0.185685,-0.0534122
2.33005,0.0671201,-0.0678391
2.28114,0.177528,-0.640511
2.32105,0.066861,-0.464406
2.30104,0.179077,0
2.39136,-0.048003,-0.0278455
2.28945,0.178175,-0.357263
2.2538,0.28672,0.0132047
2.28781,0.178047,-0.24718
2.3732,-0.0476386,-0.221579
2.30839,0.179649,0.0538774
2.37936,-0.0477622,0.0277058
2.28748,0.178021,-0.16044
2.25288,0.286604,0.0660937
2.38348,-0.0478449,-0.138836
2.30511,0.179393,0.13465
2.33709,0.067323,0.095255
2.29457,0.178573,-0.107208
2.33582,0.0672865,-0.122466
2.30368,0.179282,0.283712
2.34721,0.0676146,0.191695
2.26386,0.288001,-0.0929754
2.31509,0.18017,0.622201
2.3483,0.0676458,0.428333
2.29643,0.178718,-0.0535983
2.33826,0.059188,-0.0680718
2.33303,0.0590557,-0.466759
2.30165,0.171043,0
2.38318,-0.0561623,-0.0277523
2.28218,0.169595,-0.356033
2.25478,0.278851,0.0132047
2.28445,0.169764,-0.246752
2.38098,-0.0561106,-0.222322
2.31299,0.171886,0.0539705
2.38718,-0.0562565,0.0277989
2.30003,0.170922,-0.161277
2.33947,0.0592185,-0.191044
2.3833,-0.0561652,-0.138836
2.31369,0.171937,0.135115
2.3453,0.0593663,0.0955807
2.30315,0.171154,-0.10758
2.34004,0.059233,-0.122675
2.30429,0.171239,0.283712
2.34345,0.0593194,0.191369
2.26089,0.279605,-0.0928126
2.33497,0.173518,0.627377
2.35245,0.0595473,0.42905
2.29305,0.170404,-0.0535052
2.34645,0.0511994,-0.0683046
2.33715,0.0509965,-0.467544
2.30623,0.163289,0
2.38696,-0.0645896,-0.0277989
2.2867,0.161907,-0.356648
2.34055,0.0510708,-0.297993
2.25574,0.270978,0.0132047
2.3554,0.0513948,-0.0136929
2.289,0.162069,-0.24718
2.38874,-0.0646376,-0.223066
2.31358,0.16381,0.0539705
2.39496,-0.064806,0.027892
2.30061,0.162892,-0.161277
2.34364,0.0511382,-0.191369
2.2588,0.271344,0.0662101
2.26702,0.272332,-0.146335
2.38708,-0.0645927,-0.139069
2.31428,0.163859,0.135115
2.3415,0.0510915,0.0954179
2.29974,0.16283,-0.107394
2.34422,0.0511509,-0.122885
2.30884,0.163474,0.284199
2.34364,0.0511382,0.191369
2.25391,0.270758,-0.0924869
2.35658,0.0514205,0.429768
2.30161,0.162963,-0.0536913
2.27226,0.264919,-0.0399311
2.33862,0.0428624,-0.0680718
2.31476,0.155776,0
2.39472,-0.0731651,-0.027892
2.29119,0.154189,-0.357263
2.34469,0.0429737,-0.298498
2.26065,0.263566,0.0132279
2.35556,0.0431731,-0.0136929
2.3885,-0.0729749,-0.223066
2.31414,0.155734,0.0539705
2.39072,-0.0730429,0.0278455
2.30116,0.15486,-0.161277
2.35178,0.0431037,-0.19202
2.25973,0.263459,0.0662101
2.35525,0.0431672,0.0411179
2.26399,0.263955,-0.146079
2.38684,-0.0729243,-0.139069
2.30687,0.155244,0.13465
2.34566,0.0429915,0.0955807
2.30428,0.15507,-0.10758
2.34838,0.0430414,-0.123094
2.31336,0.155681,0.284687
2.35577,0.0431768,0.192346
2.26278,0.263815,-0.0928126
2.32456,0.156435,0.624272
2.35675,0.0431947,0.429768
2.30217,0.154928,-0.0536913
2.28724,0.145905,-0.641589
2.30731,0.147185,0
2.40245,-0.0817966,-0.0279852
2.29961,0.146693,-0.358492
2.34482,0.0347883,-0.298498
2.26553,0.256122,0.0132512
2.3597,0.0350091,-0.0137161
2.38425,-0.081177,-0.222694
2.31068,0.1474,0.0538774
2.39445,-0.0815244,0.027892
2.30965,0.147334,-0.161835
2.34793,0.0348344,-0.191695
2.26461,0.256018,0.0663264
2.35938,0.0350043,0.0411877
2.27283,0.256947,-0.146591
2.39056,-0.081392,-0.139301
2.31138,0.147444,0.134883
2.34979,0.034862,0.0957435
2.30082,0.146771,-0.107394
2.35251,0.0349024,-0.123304
2.31785,0.147857,0.285174
2.35192,0.0348936,0.19202
2.26766,0.256363,-0.0929754
2.32509,0.148319,0.624272
2.36082,0.0350256,0.430485
2.30669,0.147145,-0.0537844
2.34286,0.0265813,-0.0681882
2.29543,0.138385,-0.643746
2.34148,0.0265656,-0.468328
2.3118,0.139372,0
2.40614,-0.0903306,-0.0280317
2.30799,0.139143,-0.359722
2.35286,0.0266948,-0.299508
2.27039,0.248649,0.0132744
2.39191,-0.0897963,-0.223438
2.31517,0.139575,0.0539705
2.39415,-0.0898804,0.027892
2.30617,0.139033,-0.161556
2.35601,0.0267305,-0.192346
2.26549,0.248113,0.0663264
2.39824,-0.0900341,-0.139766
2.32384,0.140098,0.13558
2.35789,0.0267518,0.0960692
2.31329,0.139462,-0.107952
2.34863,0.0266467,-0.123094
2.31835,0.139767,0.285174
2.36,0.0267757,0.192671
2.27252,0.248882,-0.0931383
2.3333,0.140669,0.626342
2.36486,0.0268309,0.431203
2.31118,0.139335,-0.0538774
2.34548,0.0184223,-0.469113
2.31627,0.131528,0
2.40182,-0.0985657,-0.0279852
2.30057,0.130637,-0.358492
2.27124,0.240722,0.0132744
2.29898,0.130546,-0.248037
2.39954,-0.0984723,-0.224181
2.32363,0.131946,0.0541566
2.39782,-0.0984017,0.0279386
2.31461,0.131434,-0.162114
2.35609,0.0185057,-0.192346
2.27854,0.241495,-0.146847
2.40191,-0.0985694,-0.139999
2.3283,0.132211,0.135813
2.35797,0.0185205,0.0960692
2.31775,0.131612,-0.108138
2.3527,0.018479,-0.123304
2.31882,0.131673,0.285174
2.36008,0.018537,0.192671
2.26542,0.240105,-0.0928126
2.33378,0.132522,0.626342
2.31165,0.131266,-0.0538774
2.35098,0.0102581,-0.0684209
2.34945,0.0102515,-0.469897
2.31671,0.123441,0
2.40545,-0.107128,-0.0280317
2.30102,0.122605,-0.358492
2.35299,0.0102669,-0.299508
2.27605,0.233199,0.0132977
2.29942,0.12252,-0.248037
2.39918,-0.106848,-0.224181
2.40146,-0.10695,0.0279852
2.31904,0.123565,-0.162393
2.27114,0.232697,0.0664428
2.37162,0.0103482,0.0413971
2.27937,0.233539,-0.146847
2.40554,-0.107131,-0.140231
2.32476,0.12387,0.13558
2.36601,0.0103237,0.0963948
2.3142,0.123307,-0.107952
2.35674,0.0102833,-0.123513
2.32323,0.123789,0.285662
2.3681,0.0103328,0.193322
2.27022,0.232603,-0.0929754
2.37286,0.0103536,0.432638
2.31609,0.123408,-0.0539705
2.28848,0.226404,-0.0401405
2.359,0.0020591,-0.0686537
2.34947,0.00205078,-0.469897
2.31713,0.115354,0
2.41305,-0.115907,-0.0281249
2.30933,0.114966,-0.359722
2.35698,0.00205734,-0.300013
2.27685,0.225253,0.0132977
2.37196,0.00207042,-0.0137859
2.40675,-0.115604,-0.224925
2.33248,0.116118,0.0543427
2.40906,-0.115715,0.0280783
2.32344,0.115668,-0.162672
2.36414,0.00206359,-0.192997
2.27592,0.225162,0.0665591
2.37564,0.00207363,0.0414669
2.28017,0.225582,-0.146847
2.39717,-0.115144,-0.139766
2.32119,0.115556,0.135348
2.36204,0.00206176,0.096232
2.31861,0.115428,-0.108138
2.36475,0.00206413,-0.123932
2.32762,0.115876,0.286149
2.36812,0.00206707,0.193322
2.27897,0.225464,-0.0933011
2.34237,0.11661,0.628413
2.37288,0.00207122,0.432638
2.3165,0.115323,-0.0539705
2.30479,0.107483,-0.645903
2.32947,0.108633,0
2.41667,-0.123691,-0.0281714
2.30573,0.107526,-0.359107
2.36094,-0.00535589,-0.300518
2.27754,0.2181,0.0132977
2.37195,-0.00538086,-0.0137859
2.4024,-0.12296,-0.224553
2.32884,0.108604,0.0542496
2.41268,-0.123487,0.0281249
2.31981,0.108183,-0.162393
2.36812,-0.00537216,-0.193322
2.27662,0.218011,0.0665591
2.40477,-0.123082,-0.140231
2.32952,0.108636,0.135813
2.36603,-0.00536743,0.0963948
2.31896,0.108144,-0.108138
2.36075,-0.00535546,-0.123722
2.33193,0.108748,0.286637
2.3721,-0.0053812,0.193647
2.28365,0.218685,-0.0934639
2.34272,0.109252,0.628413
2.32484,0.108418,-0.0541566
2.30902,0.0991993,-0.646981
2.35335,-0.0139649,-0.470682
2.32186,0.0997508,0
2.314,0.0994134,-0.360337
2.36488,-0.0140333,-0.301023
2.28629,0.210484,0.0133442
2.3085,0.0991771,-0.248894
2.40591,-0.131984,-0.224925
2.33322,0.100239,0.0543427
2.41221,-0.132329,0.0281249
2.32418,0.0998504,-0.162672
2.37207,-0.014076,-0.193647
2.28536,0.210398,0.0667919
2.3796,-0.0141206,0.0415367
2.28563,0.210422,-0.147102
2.33389,0.100268,0.136045
2.36999,-0.0140637,0.0965577
2.32733,0.0999858,-0.108511
2.36871,-0.014056,-0.124141
2.37207,-0.014076,0.193647
2.28842,0.210679,-0.0936268
2.34697,0.10083,0.629448
2.38071,-0.0141273,0.434073
2.32523,0.0998955,-0.0541566
2.36289,-0.0222696,-0.06877
2.3132,0.0912911,-0.648059
2.36113,-0.022253,-0.47225
2.32619,0.0918037,0
2.41972,-0.141214,-0.028218
2.31829,0.0914917,-0.360952
2.36878,-0.0223251,-0.301529
2.29498,0.203208,0.0133907
2.31678,0.0914325,-0.24975
2.41338,-0.140845,-0.225668
2.33755,0.0922519,0.0544357
2.41573,-0.140981,0.0281714
2.32451,0.0917374,-0.162672
2.372,-0.0223554,-0.193647
2.28608,0.20242,0.0667919
2.38353,-0.0224641,0.0416065
2.28635,0.202443,-0.147102
2.34221,0.0924357,0.13651
2.36993,-0.0223359,0.0965577
2.32766,0.0918618,-0.108511
2.36465,-0.0222861,-0.123932
2.37599,-0.022393,0.193973
2.28516,0.202338,-0.0934639
2.38852,-0.0225111,0.435508
2.33355,0.0920942,-0.0543427
2.36681,-0.0301567,-0.0688864
2.36105,-0.0300833,-0.47225
2.33048,0.0842331,0
2.42323,-0.149484,-0.0282646
2.31858,0.0838029,-0.360952
2.36473,-0.0301302,-0.301023
2.28369,0.194577,0.0133209
2.31707,0.0837486,-0.24975
2.41688,-0.149093,-0.22604
2.33784,0.0844992,0.0544357
2.41524,-0.148992,0.0281714
2.33278,0.0843162,-0.16323
2.3759,-0.0302726,-0.193973
2.29073,0.195177,0.0669082
2.37545,-0.0302668,0.0414669
2.29496,0.195537,-0.147614
2.42328,-0.149488,-0.141394
2.3425,0.0846675,0.13651
2.37783,-0.0302972,0.0968833
2.33594,0.0844305,-0.108883
2.37255,-0.0302299,-0.12435
2.33691,0.0844657,0.287124
2.37989,-0.0303234,0.194298
2.28582,0.194758,-0.0934639
2.38843,-0.0304322,0.435508
2.33384,0.0843547,-0.0543427
2.296,0.187555,-0.0402103
2.37468,-0.0385486,-0.0691191
2.36485,-0.038389,-0.473035
2.33875,0.0763581,0
2.43068,-0.158463,-0.0283577
2.32676,0.0759664,-0.362182
2.36857,-0.0384495,-0.301529
2.29233,0.187255,0.0133674
2.38365,-0.0386942,-0.0138556
2.31735,0.0756594,-0.24975
2.42429,-0.158047,-0.226784
2.34611,0.0765984,0.0546219
2.42269,-0.157943,0.0282646
2.33306,0.0761721,-0.16323
2.37977,-0.0386312,-0.194298
2.29538,0.187504,0.0670246
2.38732,-0.0387538,0.0416763
2.29563,0.187525,-0.147614
2.41876,-0.157686,-0.141162
2.34278,0.0764896,0.13651
2.38571,-0.0387276,0.097209
2.33622,0.0762754,-0.108883
2.38042,-0.0386418,-0.124769
2.34116,0.0764367,0.287612
2.38376,-0.0386959,0.194624
2.29445,0.187428,-0.0937896
2.38831,-0.0387698,0.435508
2.33013,0.0760765,-0.0542496
2.37053,-0.047172,-0.0690027
2.31403,0.067062,-0.648059
2.36861,-0.0471339,-0.473819
2.34302,0.067902,0
2.43008,-0.167371,-0.0283577
2.32702,0.0674384,-0.362182
2.37239,-0.0472089,-0.302034
2.30097,0.179474,0.0134139
2.38349,-0.0474299,-0.0138556
2.32159,0.0672811,-0.250179
2.41575,-0.166384,-0.22604
2.34238,0.0678837,0.0545288
2.42609,-0.167096,0.0283111
2.33731,0.0677366,-0.163509
2.3836,-0.047432,-0.194624
2.30004,0.179401,0.067141
2.39116,-0.0475826,0.0417462
2.30028,0.17942,-0.14787
2.42215,-0.166824,-0.141394
2.34304,0.0679029,0.13651
2.38555,-0.0474709,0.097209
2.33648,0.0677127,-0.108883
2.38026,-0.0473657,-0.124769
2.34539,0.0679709,0.288099
2.39556,-0.04767,0.1956
2.29512,0.179018,-0.0937896
2.39208,-0.0476009,0.436225
2.33839,0.0677678,-0.0544357
2.37435,-0.0555405,-0.0691191
2.3258,0.0592779,-0.651294
2.36451,-0.0553105,-0.473035
2.33524,0.0595185,0
