2.53906,0.152182,-0.0443989
2.48117,-0.0940159,-0.0722609
2.49985,0.0274884,0
2.44262,-0.212412,-0.0285439
2.52742,0.151485,0.0147158
2.50933,0.0275927,-0.270313
2.51117,0.0276129,0.058437
2.43863,-0.212066,0.0284974
2.52639,0.151423,0.0736572
2.48184,-0.0940413,0.0433518
2.53823,0.152132,-0.162964
2.44661,-0.212759,-0.143022
2.49562,0.0274419,0.145348
2.46818,-0.0935237,0.100628
2.50513,0.0275465,-0.1167
2.48281,-0.094078,-0.130212
2.52936,0.151601,-0.103234
2.50717,0.0275689,-0.058344
2.53558,0.143093,-0.0443291
2.47683,-0.102511,-0.0721445
2.49193,0.0187021,0
2.44584,-0.221298,-0.0285905
2.52794,0.142661,0.0147158
2.47784,-0.102553,-0.0144135
2.50941,0.0188333,-0.270313
2.44732,-0.221432,-0.229386
2.50325,0.018787,0.0582509
2.44186,-0.220938,0.0285439
2.5098,0.0188362,-0.175507
2.52691,0.142603,0.0736572
2.4815,-0.102704,0.0433518
2.53476,0.143046,-0.162708
2.44983,-0.221658,-0.143255
2.49969,0.0187603,0.14558
2.49722,0.0187418,-0.116328
2.47847,-0.102579,-0.130003
2.52588,0.142545,-0.103071
2.50325,0.018787,-0.0582509
2.53606,0.134241,-0.0443291
2.47646,-0.111156,-0.0721445
2.44506,-0.229834,-0.0285905
2.52842,0.133836,0.0147158
2.47746,-0.111201,-0.0144135
2.50549,0.0100577,-0.269885
2.4993,0.0100329,0.0581579
2.43311,-0.228711,0.0284508
2.50586,0.0100592,-0.175228
2.5234,0.133571,0.0735409
2.47713,-0.111186,0.043282
2.53126,0.133987,-0.162452
2.44904,-0.230208,-0.143255
2.50374,0.0100507,0.145813
2.50127,0.0100408,-0.116514
2.47012,-0.110871,-0.129584
2.52237,0.133516,-0.102908
2.4993,0.0100329,-0.0581579
2.53252,0.12519,-0.0442593
2.46807,-0.119413,-0.0719118
2.492,0.00130481,0
2.43628,-0.237591,-0.0284974
2.5019,0.00130999,-0.389238
2.52887,0.12501,0.0147158
2.47706,-0.119848,-0.0144135
2.50551,0.00131188,-0.269885
2.44571,-0.238512,-0.229386
2.50332,0.00131074,0.0582509
2.44026,-0.237979,0.0285439
2.50588,0.00131208,-0.175228
2.47673,-0.119832,0.043282
2.53171,0.12515,-0.162452
2.49577,0.00130678,0.145348
2.4933,0.00130549,-0.116142
2.47371,-0.119686,-0.129793
2.51883,0.124513,-0.102745
2.50732,0.00131283,-0.058344
2.52895,0.116166,-0.0441895
2.46763,-0.128028,-0.0719118
2.49599,-0.00740577,0
2.43145,-0.245692,-0.0284508
2.5173,0.115631,0.014646
2.50331,-0.00742749,0.0582509
2.43543,-0.246094,0.0284974
2.46032,-0.127648,0.0430027
2.52017,0.115762,-0.161685
2.43942,-0.246497,-0.142789
2.48777,-0.00738139,0.144882
2.49728,-0.0074096,-0.116328
2.47327,-0.12832,-0.129793
2.51925,0.11572,-0.102745
2.52934,0.107337,-0.0441895
2.47117,-0.136862,-0.0720282
2.49195,-0.0160925,0
2.43058,-0.254178,-0.0284508
2.50185,-0.0161565,-0.389238
2.5137,0.106674,0.0146228
2.46818,-0.136696,-0.0143671
2.4975,-0.0161284,-0.269028
2.49927,-0.0161398,0.0581579
2.4266,-0.253762,0.0284042
2.50184,-0.0161564,-0.174949
2.52066,0.106969,0.0734245
2.45986,-0.136235,0.0430027
2.52454,0.107134,-0.161941
2.44252,-0.255426,-0.143022
2.48374,-0.0160395,0.14465
2.49324,-0.0161009,-0.116142
2.47281,-0.136953,-0.129793
2.51565,0.106756,-0.102582
2.49127,-0.0160882,-0.0579717
2.5217,0.0981965,-0.0440499
2.46269,-0.145017,-0.0717954
2.48788,-0.0247512,0
2.44161,-0.26395,-0.0285905
2.51805,0.0980541,0.014646
2.46369,-0.145076,-0.0143438
2.49345,-0.0248066,-0.268599
2.43912,-0.263681,-0.229014
2.4952,-0.024824,0.0580648
2.43365,-0.26309,0.0284974
2.51303,0.0978587,0.0731918
2.46735,-0.145291,0.0431423
2.52091,0.0981657,-0.161685
2.43367,-0.263092,-0.142557
2.48766,-0.024749,0.144882
2.48918,-0.0247641,-0.115956
2.46434,-0.145114,-0.129375
2.52,0.09813,-0.102745
2.4992,-0.0248638,-0.0581579
2.52203,0.0893935,-0.0440499
2.45818,-0.153363,-0.0716791
2.47978,-0.0333278,0
2.4367,-0.272027,-0.0285439
2.51438,0.0891222,0.0146228
2.46716,-0.153924,-0.0143671
2.49335,-0.0335102,-0.268599
2.43423,-0.271752,-0.228642
2.4871,-0.0334263,0.0578787
2.42477,-0.270696,0.0284042
2.51336,0.089086,0.0731918
2.46284,-0.153654,0.0430725
2.52124,0.0893654,-0.161685
2.43274,-0.271586,-0.142557
2.48756,-0.0334324,0.144882
2.48908,-0.0334528,-0.115956
2.46781,-0.153964,-0.129584
2.51234,0.0890498,-0.10242
2.4951,-0.0335337,-0.0580648
2.52633,0.0807171,-0.0441197
2.45763,-0.161943,-0.0716791
2.48364,-0.0420514,0
2.42779,-0.279616,-0.0284508
2.49364,-0.0422206,-0.388008
2.51467,0.0803448,0.0146228
2.46262,-0.162272,-0.0143438
2.48924,-0.0421461,-0.268171
2.43722,-0.280703,-0.229014
2.42381,-0.279159,0.0284042
2.48557,-0.042084,-0.173833
2.46627,-0.162513,0.0431423
2.51356,0.0803092,-0.161173
2.48344,-0.0420478,0.14465
2.48495,-0.0420734,-0.115769
2.46327,-0.162315,-0.129375
2.50864,0.080152,-0.102257
2.49497,-0.0422431,-0.0580648
2.52259,0.0717843,-0.0440499
2.46104,-0.170798,-0.0717954
2.48348,-0.0507206,0
2.43077,-0.288561,-0.0284974
2.49348,-0.0509248,-0.388008
2.51094,0.0714527,0.0145995
2.46204,-0.170867,-0.0143438
2.49081,-0.0508702,0.0579717
2.42282,-0.287618,0.0284042
2.49339,-0.050923,-0.174391
2.50592,0.0713099,0.0729591
2.45771,-0.170567,0.0430027
2.51781,0.0716483,-0.161429
2.43475,-0.289033,-0.142789
2.47928,-0.0506348,0.144417
2.48479,-0.0507473,-0.115769
2.4587,-0.170636,-0.129165
2.5089,0.0713947,-0.102257
2.49081,-0.0508702,-0.0579717
2.51482,0.0632177,-0.0439103
2.46046,-0.178958,-0.0717954
2.4793,-0.0588609,0
2.4298,-0.29662,-0.0284974
2.51116,0.0631257,0.0145995
2.45348,-0.17845,-0.0142973
2.48095,-0.0589,-0.267314
2.49062,-0.0591298,0.0579717
2.4298,-0.29662,0.0284974
2.45315,-0.178426,0.0429329
2.51405,0.0631982,-0.161173
2.42585,-0.296138,-0.142324
2.4791,-0.0588562,0.144417
2.48061,-0.058892,-0.115583
2.46211,-0.179078,-0.129375
2.50513,0.062974,-0.102094
2.48663,-0.0590348,-0.0578787
2.51904,0.0540858,-0.0439801
2.4558,-0.18767,-0.0716791
2.47907,-0.0679476,0
2.42869,-0.305523,-0.0284974
2.50338,0.0537497,0.014553
2.4568,-0.187746,-0.0143206
2.48469,-0.0681016,-0.267743
2.42625,-0.305216,-0.228271
2.4784,-0.0679292,0.0576926
2.42472,-0.305024,0.0284508
2.50236,0.0537279,0.0728427
2.46045,-0.188025,0.0430725
2.51426,0.0539833,-0.161173
2.42475,-0.305027,-0.142324
2.47887,-0.0679421,0.144417
2.48038,-0.0679835,-0.115583
2.50934,0.0538777,-0.102257
2.4824,-0.0680388,-0.0577856
2.51521,0.0452205,-0.0439103
2.44716,-0.195604,-0.0714464
2.47482,-0.0764772,0
2.42364,-0.313486,-0.0284508
2.48491,-0.076789,-0.386778
2.50355,0.045011,0.014553
2.45613,-0.196321,-0.0143206
2.48046,-0.0766516,-0.267314
2.42517,-0.313683,-0.228271
2.47815,-0.0765801,0.0576926
2.41968,-0.312973,0.0284042
2.49854,0.0449208,0.0727263
2.45579,-0.196294,0.0430027
2.51044,0.0451348,-0.160917
2.42763,-0.314002,-0.142557
2.47462,-0.0764712,0.144185
2.47613,-0.0765178,-0.115397
2.4528,-0.196055,-0.128956
2.50152,0.0449744,-0.101931
2.48614,-0.0768271,-0.0578787
2.51135,0.0363826,-0.0438404
2.44646,-0.204145,-0.0714464
2.47054,-0.084978,0
2.41461,-0.320891,-0.0283577
2.48462,-0.0854625,-0.386778
2.4997,0.0362137,0.0145298
2.45144,-0.20456,-0.0142973
2.48018,-0.0853095,-0.267314
2.48186,-0.0853674,0.0577856
2.41857,-0.321417,0.0284042
2.48446,-0.0854568,-0.173833
2.45111,-0.204533,0.0429329
2.51059,0.0363715,-0.160917
2.4186,-0.321422,-0.142092
2.47434,-0.0851088,0.144185
2.47585,-0.0851607,-0.115397
2.45608,-0.204948,-0.129165
2.49767,0.0361843,-0.101768
2.48586,-0.0855049,-0.0578787
2.44971,-0.21303,-0.0715627
2.47023,-0.0936013,0
2.41743,-0.329858,-0.0284042
2.49581,0.0274439,0.0145065
2.47755,-0.0938788,0.0576926
2.41743,-0.329858,0.0284042
2.45038,-0.213088,0.0429329
2.50271,0.0275199,-0.160406
2.42142,-0.330402,-0.142324
2.47403,-0.0937454,0.144185
2.47154,-0.0936512,-0.115211
2.44739,-0.212828,-0.128746
2.50177,0.0275095,-0.101931
2.48155,-0.0940302,-0.0577856
2.50754,0.0192569,-0.0437706
2.4699,-0.101792,0
2.41633,-0.337873,-0.0284042
2.47609,-0.102047,-0.385548
2.49588,0.0191674,0.0145065
2.44202,-0.220523,-0.0142508
2.47557,-0.102026,-0.266886
2.42181,-0.338639,-0.228271
2.47723,-0.102094,0.0576926
2.41633,-0.337873,0.0284042
2.47983,-0.102202,-0.173554
2.44169,-0.220493,0.0427933
2.50279,0.0192204,-0.160406
2.4124,-0.337324,-0.141859
2.46573,-0.10162,0.14372
2.47521,-0.102011,-0.115397
2.46736,-0.101688,0.303211
2.49785,0.0191825,-0.101768
2.48122,-0.102259,-0.0577856
2.5036,0.0104871,-0.0437008
2.43626,-0.228579,-0.0712136
2.47353,-0.110592,0
2.41909,-0.346873,-0.0284508
2.49594,0.010455,0.0145065
2.4492,-0.229793,-0.0142973
2.47122,-0.110489,-0.266457
2.41667,-0.346525,-0.227899
2.46886,-0.110383,0.0575065
2.41117,-0.345737,0.0283577
2.47946,-0.110857,-0.173554
2.49892,0.0104675,0.0727263
2.44887,-0.229762,0.0429329
2.50684,0.0105007,-0.160661
2.40726,-0.345176,-0.141627
2.46536,-0.110226,0.14372
2.47085,-0.110472,-0.115211
2.44986,-0.229855,-0.128956
2.46302,-0.110122,0.302723
2.5019,0.01048,-0.101931
2.46886,-0.110383,-0.0575065
2.50362,0.00174788,-0.0437008
2.44341,-0.237856,-0.0714464
2.46114,-0.118648,0
2.41787,-0.355315,-0.0284508
2.49196,0.00173974,0.0144833
2.4444,-0.237953,-0.0142741
2.47479,-0.119306,-0.266886
2.41544,-0.354959,-0.227899
2.47246,-0.119193,0.0575995
2.40995,-0.354152,0.0283577
2.47508,-0.119319,-0.173275
2.49494,0.00174182,0.07261
2.44407,-0.237921,0.0428631
2.50686,0.00175014,-0.160661
2.41394,-0.354738,-0.142092
2.46894,-0.119024,0.143952
2.47045,-0.119096,-0.115211
2.44507,-0.238018,-0.128746
2.50192,0.0017467,-0.101931
2.47246,-0.119193,-0.0575995
2.50361,-0.00699143,-0.0437008
2.44257,-0.246384,-0.0714464
2.46471,-0.127444,0
2.4087,-0.362562,-0.0283577
2.47093,-0.127766,-0.384934
2.47436,-0.127944,-0.266886
2.41419,-0.363388,-0.227899
2.47203,-0.127823,0.0575995
2.40475,-0.361967,0.0283111
2.47464,-0.127958,-0.173275
2.43925,-0.246049,0.0427933
2.49886,-0.00697818,-0.16015
2.41664,-0.363756,-0.142324
2.46453,-0.127435,0.14372
2.46603,-0.127513,-0.115025
2.44025,-0.246151,-0.128537
2.45823,-0.12711,0.302236
2.48593,-0.00694206,-0.10128
2.49957,-0.0157055,-0.043631
2.44169,-0.254909,-0.0714464
2.46824,-0.136268,0
2.40347,-0.370359,-0.0283111
2.48791,-0.0156322,0.01446
2.44268,-0.255012,-0.0142741
2.46993,-0.136361,-0.266457
2.47157,-0.136451,0.0575995
2.40347,-0.370359,0.0283111
2.4702,-0.136376,-0.172996
2.43837,-0.254563,0.0427933
2.49483,-0.0156757,-0.159894
2.40351,-0.370365,-0.141627
2.46008,-0.135817,0.143487
2.42877,-0.25356,0.0994886
2.46956,-0.13634,-0.115211
2.48989,-0.0156446,-0.101443
2.47157,-0.136451,-0.0575995
2.4915,-0.0247872,-0.0434914
2.43676,-0.263427,-0.07133
2.45974,-0.144843,0
2.40209,-0.379165,-0.0283111
2.46207,-0.14498,-0.383704
2.4298,-0.262674,-0.0142043
2.46544,-0.145179,-0.266029
2.46706,-0.145274,0.0575065
2.40604,-0.379789,0.0283577
2.46968,-0.145428,-0.172996
2.48283,-0.0247009,0.0722609
2.43743,-0.263498,0.0427933
2.49875,-0.0248593,-0.16015
2.40214,-0.379172,-0.141627
2.45558,-0.144598,0.143255
2.42386,-0.262031,0.0993258
2.46904,-0.145391,-0.115211
2.48581,-0.0247306,-0.10128
2.45907,-0.144804,-0.0573204
2.4954,-0.0331022,-0.0435612
2.4319,-0.271063,-0.0712136
2.45925,-0.152999,0
2.40872,-0.388402,-0.0284042
2.47974,-0.0328945,0.0144135
2.43687,-0.271616,-0.0142508
2.46495,-0.153354,-0.266029
2.40632,-0.388015,-0.227527
2.46257,-0.153206,0.0574134
2.40082,-0.387129,0.0283111
2.48673,-0.0329872,0.0723772
2.43256,-0.271136,0.0427235
2.49067,-0.0330395,-0.159638
2.40875,-0.388407,-0.142092
2.45907,-0.152988,0.143487
2.46456,-0.15333,-0.115025
2.4528,-0.152598,0.301749
2.48572,-0.0329738,-0.10128
2.46257,-0.153206,-0.0574134
2.48727,-0.0416785,-0.0434216
2.43094,-0.27955,-0.0712136
2.46269,-0.161845,0
2.39551,-0.394856,-0.0282646
2.46497,-0.161994,-0.384319
2.48361,-0.0416172,0.0144368
2.40495,-0.396412,-0.227527
2.45803,-0.161539,0.0573204
2.39551,-0.394856,0.0282646
2.4786,-0.0415333,0.0721445
2.43558,-0.280083,0.0427933
2.49453,-0.0418002,-0.159894
2.40344,-0.396163,-0.141859
2.45454,-0.161309,0.143255
2.46401,-0.161931,-0.115025
2.43658,-0.280198,-0.128537
2.48559,-0.0416503,-0.10128
2.46601,-0.162063,-0.0575065
2.45413,-0.169888,0
2.39412,-0.403216,-0.0282646
2.45256,-0.169779,-0.382474
2.48345,-0.0502863,0.0144368
2.39806,-0.40388,0.0283111
2.46407,-0.170576,-0.172717
2.43061,-0.288112,0.0427235
2.49038,-0.0504266,-0.159638
2.39811,-0.403887,-0.141627
2.45396,-0.169876,0.143255
2.42103,-0.286976,0.0993258
2.46343,-0.170531,-0.115025
2.43162,-0.288231,-0.128328
2.47744,-0.0501646,-0.100954
2.45745,-0.170118,-0.0573204
2.49092,-0.0591367,-0.0434914
2.42893,-0.296514,-0.0712136
2.45352,-0.178453,0
2.39664,-0.412248,-0.0283111
2.45195,-0.178339,-0.382474
2.42992,-0.296635,-0.0142276
2.45924,-0.178869,-0.265601
2.45684,-0.178695,0.0573204
2.39664,-0.412248,0.0283111
2.47426,-0.0587411,0.0720282
2.42562,-0.29611,0.0426537
2.4862,-0.0590247,-0.159382
2.39668,-0.412256,-0.141627
2.45733,-0.178731,0.143487
2.41604,-0.294941,0.0991629
2.45883,-0.17884,-0.114839
2.4306,-0.296717,-0.128328
2.48524,-0.0590019,-0.10128
2.45684,-0.178695,-0.0573204
2.4867,-0.0677224,-0.0434216
2.42392,-0.304493,-0.0710973
2.4449,-0.186408,0
2.39518,-0.420612,-0.0283111
2.45919,-0.187498,-0.383704
2.47504,-0.0674049,0.0143903
2.42093,-0.304118,-0.0141811
2.45464,-0.18715,-0.265172
2.46019,-0.187574,0.0574134
2.39124,-0.41992,0.0282646
2.47803,-0.0674864,0.0721445
2.42457,-0.304575,0.0426537
2.48598,-0.0677028,-0.159382
2.39523,-0.420619,-0.141627
2.44475,-0.186396,0.142789
2.45819,-0.187421,-0.114839
2.44647,-0.186528,0.301261
2.47303,-0.0673502,-0.100791
2.45222,-0.186966,-0.0572273
2.48645,-0.0764022,-0.0434216
2.41887,-0.31244,-0.0709809
2.44823,-0.195259,0
2.39764,-0.429675,-0.0283577
2.47079,-0.0759212,0.0143671
2.42382,-0.313079,-0.0142043
2.45397,-0.195717,-0.265172
2.39526,-0.42925,-0.227155
2.44756,-0.195207,0.0571343
2.38976,-0.428264,0.0282646
2.45817,-0.196053,-0.172438
2.46979,-0.0758903,0.0719118
2.42349,-0.313037,0.0426537
2.48173,-0.0762574,-0.159126
2.38981,-0.428273,-0.141394
2.44408,-0.194929,0.142789
2.44956,-0.195366,-0.114467
2.42846,-0.313679,-0.128328
2.47278,-0.0759823,-0.100791
2.45155,-0.195525,-0.0572273
2.42179,-0.320985,-0.0710973
2.44757,-0.203377,0
2.39227,-0.436905,-0.0283111
2.45392,-0.203905,-0.383089
2.47053,-0.0841142,0.0143671
2.42277,-0.321115,-0.0142043
2.44934,-0.203525,-0.264744
2.39383,-0.43719,-0.227155
2.4469,-0.203322,0.0571343
2.3844,-0.435468,0.028218
2.45353,-0.203873,-0.172159
2.47352,-0.0842161,0.0720282
2.42641,-0.321597,0.0427235
2.48147,-0.0844867,-0.159126
2.44342,-0.203033,0.142789
2.4489,-0.203488,-0.114467
2.42345,-0.321205,-0.128118
2.46852,-0.0840459,-0.100628
2.4469,-0.203322,-0.0571343
2.42065,-0.329436,-0.0710973
2.44286,-0.211574,0
2.38679,-0.444521,-0.0282646
2.44926,-0.212129,-0.382474
2.47022,-0.0927374,0.0143671
2.4256,-0.33011,-0.0142276
2.45016,-0.212207,0.0572273
2.38286,-0.443789,0.028218
2.45281,-0.212436,-0.172159
2.46522,-0.0925497,0.0717954
2.42527,-0.330065,0.0427235
2.38684,-0.44453,-0.141394
2.44668,-0.211905,0.143022
2.41175,-0.328225,0.0991629
2.45215,-0.212379,-0.114653
2.42232,-0.329663,-0.128118
2.45016,-0.212207,-0.0572273
2.42345,-0.338437,-0.0712136
2.4421,-0.2201,0
2.38523,-0.45285,-0.0282646
2.4485,-0.220677,-0.382474
2.46988,-0.10136,0.0143671
2.3813,-0.452104,0.028218
2.45205,-0.220997,-0.172159
2.47683,-0.101645,-0.158871
2.38528,-0.452859,-0.141394
2.43399,-0.219369,0.142324
2.40663,-0.336088,0.0990001
2.44742,-0.220579,-0.114467
2.42115,-0.338116,-0.128118
2.44542,-0.220399,-0.0571343
2.47717,-0.110321,-0.043282
2.41829,-0.346327,-0.0710973
2.4453,-0.228996,0
2.37971,-0.460413,-0.028218
2.43985,-0.228485,-0.381244
2.46152,-0.109625,0.0143206
2.41532,-0.345901,-0.0141811
2.44312,-0.228792,-0.264316
2.38521,-0.461477,-0.226784
2.44862,-0.229307,0.0572273
2.38756,-0.461933,0.0283111
2.46052,-0.10958,0.0716791
2.41103,-0.345287,0.0425141
2.47247,-0.110112,-0.158615
2.37584,-0.459665,-0.140929
2.43321,-0.227864,0.142324
2.44663,-0.229121,-0.114467
2.41996,-0.346565,-0.128118
2.43498,-0.22803,0.300286
2.46351,-0.109713,-0.100466
2.44066,-0.228561,-0.0570412
2.47677,-0.118968,-0.043282
2.40916,-0.353605,-0.0708645
2.44051,-0.237144,0
2.38593,-0.470264,-0.0283111
2.4469,-0.237765,-0.382474
2.46112,-0.118216,0.0143206
2.41409,-0.35433,-0.0141811
2.4423,-0.237318,-0.264316
2.43985,-0.237079,0.0570412
2.38201,-0.469491,0.0282646
2.44648,-0.237724,-0.17188
2.46411,-0.11836,0.0717954
2.41377,-0.354282,0.0425839
2.47606,-0.118934,-0.158871
2.37422,-0.467956,-0.140929
2.4324,-0.236356,0.142324
2.43389,-0.2365,-0.113908
2.41873,-0.355011,-0.128118
2.43022,-0.236144,0.299799
2.46711,-0.118504,-0.100628
2.47234,-0.127407,-0.0432122
2.40395,-0.361418,-0.0707482
2.4317,-0.24486,0
2.38036,-0.477802,-0.0282646
2.43033,-0.244721,-0.380014
2.46069,-0.126806,0.0143206
2.4168,-0.363349,-0.0142043
2.44146,-0.245842,-0.264316
2.38193,-0.478118,-0.226784
2.439,-0.245595,0.0570412
2.37643,-0.477015,0.028218
2.45969,-0.126755,0.0716791
2.41252,-0.362705,0.0425839
2.47164,-0.127371,-0.158615
2.3804,-0.477812,-0.141394
2.43156,-0.244846,0.142324
2.441,-0.245795,-0.11428
2.41353,-0.362857,-0.127909
2.46269,-0.126909,-0.100466
2.439,-0.245595,-0.0570412
2.41058,-0.371024,-0.0709809
2.42686,-0.252932,0
2.38259,-0.486909,-0.0283111
2.43339,-0.253613,-0.380629
2.46024,-0.135395,0.0143206
2.43415,-0.253692,0.0569482
2.37475,-0.485308,0.028218
2.44079,-0.254384,-0.171601
2.41149,-0.371163,-0.19918
2.41123,-0.371125,0.0425839
2.4672,-0.135778,-0.158359
2.37872,-0.486119,-0.141394
2.43467,-0.253746,0.142557
2.39775,-0.369049,0.0988373
2.4441,-0.254729,-0.114467
2.41225,-0.37128,-0.127909
2.42851,-0.253104,0.299799
2.45425,-0.135065,-0.10014
2.43415,-0.253692,-0.0569482
2.47139,-0.144664,-0.0432122
2.40532,-0.378814,-0.0708645
2.43391,-0.262259,0
2.38088,-0.495223,-0.0283111
2.42856,-0.261682,-0.380014
2.45176,-0.143514,0.0142741
2.41025,-0.37959,-0.0141811
2.43573,-0.262454,-0.263887
2.38243,-0.495546,-0.227155
2.4412,-0.263044,0.0571343
2.36913,-0.49278,0.0281714
2.43988,-0.262902,-0.171601
2.40597,-0.378917,0.0425141
2.45874,-0.143923,-0.157847
2.37701,-0.494419,-0.141394
2.42979,-0.261815,0.142324
2.39645,-0.377417,0.0988373
2.43922,-0.262831,-0.11428
2.40699,-0.379077,-0.1277
2.42761,-0.26158,0.299799
2.43325,-0.262188,-0.0569482
2.4589,-0.152547,-0.0430027
2.40399,-0.387208,-0.0708645
2.43696,-0.271195,0
2.37913,-0.503531,-0.0283111
2.42763,-0.270157,-0.380014
2.45125,-0.152072,0.0142741
2.40891,-0.388001,-0.0141811
2.43085,-0.270515,-0.263459
2.44027,-0.271564,0.0571343
2.37522,-0.502703,0.0282646
2.45424,-0.152258,0.0715627
2.40069,-0.386677,0.0424443
2.46221,-0.152752,-0.158103
2.36746,-0.50106,-0.140929
2.4249,-0.269853,0.142092
2.39512,-0.38578,0.0988373
2.43432,-0.270902,-0.114094
2.42274,-0.269613,0.299311
2.45324,-0.152196,-0.10014
2.42304,-0.269646,0.653259
2.42437,-0.269795,-0.0567621
2.46234,-0.16139,-0.0430725
2.39867,-0.394948,-0.0707482
2.436,-0.2797,0
2.43453,-0.279531,-0.381244
2.4507,-0.160627,0.0142741
2.4036,-0.395758,-0.0141578
2.42594,-0.278545,-0.26303
2.37113,-0.51049,-0.226412
2.43136,-0.279168,0.0569482
2.36563,-0.509307,0.0281714
2.40327,-0.395704,0.0425141
2.46166,-0.161345,-0.158103
2.3696,-0.510161,-0.141162
2.42394,-0.278316,0.142092
2.38981,-0.393489,0.0986745
2.42542,-0.278486,-0.113722
2.40822,-0.39652,-0.127909
2.42573,-0.278521,0.299799
2.45669,-0.16102,-0.100303
2.42208,-0.278103,0.653259
2.43136,-0.279168,-0.0569482
2.39728,-0.403318,-0.0707482
2.41912,-0.286321,0
2.43354,-0.288028,-0.381244
2.45012,-0.169181,0.0142741
2.4022,-0.404146,-0.0141578
2.4289,-0.287479,-0.263459
2.36933,-0.518764,-0.226412
2.43435,-0.288124,0.0570412
2.35993,-0.516706,0.0281249
2.42907,-0.2875,-0.171043
2.44913,-0.169112,0.0714464
2.40582,-0.404754,0.0425839
2.46108,-0.169937,-0.158103
2.3678,-0.518429,-0.141162
2.42295,-0.286775,0.142092
2.39237,-0.402491,0.0988373
2.4284,-0.28742,-0.113908
2.39895,-0.403599,-0.12749
2.41685,-0.286053,0.298824
2.45212,-0.169319,-0.10014
2.4211,-0.286556,0.653259
2.42243,-0.286714,-0.0567621
2.39586,-0.411684,-0.0707482
2.42207,-0.295248,0
2.36983,-0.527548,-0.0282646
2.42074,-0.295086,-0.379399
2.45351,-0.178022,0.0142973
2.40472,-0.413206,-0.0141811
2.42788,-0.295956,-0.263459
2.37528,-0.528762,-0.227155
2.42936,-0.296136,0.0569482
2.36592,-0.526679,0.028218
2.40464,-0.413193,-0.19918
2.44454,-0.177371,0.07133
2.40045,-0.412473,0.0425141
2.46047,-0.178527,-0.158103
2.36988,-0.527559,-0.141394
2.42194,-0.295231,0.142092
2.41978,-0.294969,0.299311
2.44753,-0.177588,-0.0999771
2.42008,-0.295005,0.653259
2.42539,-0.295652,-0.0568551
2.39834,-0.420735,-0.0708645
2.42499,-0.304198,0
2.37187,-0.5367,-0.0283111
2.42362,-0.304026,-0.380014
2.44091,-0.185675,0.0142276
2.39932,-0.420906,-0.0141578
2.41894,-0.303439,-0.262602
2.36953,-0.536171,-0.226784
2.42434,-0.304116,0.0568551
2.36017,-0.534052,0.0281714
2.43097,-0.304947,-0.171322
2.39899,-0.420849,0.0425141
2.45585,-0.186812,-0.157847
2.36802,-0.535828,-0.141394
2.42089,-0.303684,0.142092
2.38556,-0.418493,0.0986745
2.40001,-0.421027,-0.1277
2.4148,-0.302919,0.298824
2.4469,-0.186131,-0.0999771
2.4152,-0.30297,0.652224
2.42831,-0.304614,-0.0569482
2.44795,-0.193948,-0.0428631
2.40095,-0.428971,-0.0709809
2.42006,-0.311305,0
2.37017,-0.544149,-0.0283111
2.42265,-0.311639,-0.380014
2.4443,-0.193658,0.0142508
2.42192,-0.311544,-0.26303
2.36238,-0.542359,0.028218
2.43932,-0.193264,0.0712136
2.39372,-0.42768,0.0424443
2.44729,-0.193896,-0.157336
2.35854,-0.541478,-0.140929
2.41597,-0.310778,0.141859
2.41383,-0.310504,0.298824
2.45028,-0.194132,-0.10014
2.41424,-0.310556,0.652224
2.4194,-0.311221,-0.0567621
2.45121,-0.203249,-0.0429329
2.38756,-0.435615,-0.0706318
2.42287,-0.320698,0
2.36427,-0.551923,-0.0282646
2.4215,-0.320516,-0.380014
2.44357,-0.202616,0.0142508
2.39246,-0.43651,-0.0141346
2.41682,-0.319897,-0.262602
2.36583,-0.552287,-0.226784
2.41825,-0.320086,0.0567621
2.35648,-0.550104,0.0281714
2.4386,-0.202203,0.0712136
2.39607,-0.437169,0.0425141
2.45452,-0.203524,-0.157847
2.36043,-0.551027,-0.141162
2.41481,-0.319631,0.141859
2.39708,-0.437353,-0.1277
2.40874,-0.318828,0.298336
2.44557,-0.202782,-0.0999771
2.41692,-0.31991,0.653259
2.41825,-0.320086,-0.0567621
2.38602,-0.443946,-0.0706318
2.42368,-0.329418,-0.684721
2.39466,-0.445554,-0.487155
2.41381,-0.328076,0
2.42428,-0.329499,-0.380629
2.43887,-0.2108,0.0142276
2.39093,-0.444859,-0.0141346
2.41569,-0.328331,-0.262602
2.36001,-0.559623,-0.226412
2.41712,-0.328525,0.0567621
2.35454,-0.558327,0.0281714
2.41979,-0.328889,-0.170764
2.43787,-0.210714,0.0712136
2.3906,-0.444798,0.0424443
2.44982,-0.211747,-0.157591
2.35461,-0.558341,-0.140929
2.41368,-0.328058,0.141859
2.41911,-0.328796,-0.113722
2.39162,-0.444987,-0.12749
2.40762,-0.327234,0.298336
2.44087,-0.210973,-0.0998143
2.40813,-0.327304,0.651189
2.42108,-0.329064,-0.0568551
2.44973,-0.220357,-0.0429329
2.38053,-0.451527,-0.0705155
2.4187,-0.337344,-0.683643
2.40869,-0.335947,0
2.36036,-0.568415,-0.0282646
2.41528,-0.336867,-0.379399
2.45007,-0.220387,0.0142973
2.41453,-0.336761,-0.262602
2.35804,-0.567858,-0.226412
2.41991,-0.337513,0.0568551
2.34869,-0.565606,0.0281249
2.42258,-0.337884,-0.171043
2.44907,-0.220297,-0.157591
2.36041,-0.568427,-0.141394
2.41648,-0.337033,0.142092
2.38612,-0.452588,-0.127281
2.41039,-0.336185,0.298824
2.43614,-0.219134,-0.0996514
2.42228,-0.337843,0.65533
2.44501,-0.228108,-0.0428631
2.38687,-0.460935,-0.0707482
2.41152,-0.344498,0
2.35457,-0.57529,-0.028218
2.41415,-0.344875,-0.379399
2.43339,-0.227024,0.0142043
2.39177,-0.461881,-0.0141578
2.41733,-0.345329,-0.26303
2.36002,-0.576619,-0.226784
2.35069,-0.57434,0.0281714
2.42144,-0.345916,-0.171043
2.4324,-0.226932,0.0710973
2.38752,-0.46106,0.0424443
2.44435,-0.228046,-0.157336
2.35463,-0.575303,-0.141162
2.40744,-0.343915,0.141627
2.37805,-0.459233,0.0986745
2.38853,-0.461256,-0.12749
2.40926,-0.344176,0.298824
2.4354,-0.227211,-0.0996514
2.41878,-0.345536,-0.0568551
2.44416,-0.237068,-0.0428631
2.38517,-0.469681,-0.0707482
2.40628,-0.352754,0
2.35245,-0.583916,-0.028218
2.41287,-0.353721,-0.379399
2.38614,-0.469872,-0.0141346
2.40425,-0.352456,-0.261745
2.35789,-0.585265,-0.226784
2.35633,-0.584879,0.0282646
2.43155,-0.235845,0.0710973
2.38189,-0.469035,0.0423744
2.4435,-0.237004,-0.157336
2.34475,-0.582006,-0.140696
2.40616,-0.352737,0.141627
2.37243,-0.467173,0.0985116
2.39074,-0.470779,-0.1277
2.40799,-0.353004,0.298824
2.43455,-0.236136,-0.0996514
2.41986,-0.354745,0.65533
2.40959,-0.353239,-0.056669
2.44331,-0.245598,-0.0428631
2.41504,-0.362654,-0.683643
2.40899,-0.361746,0
2.35428,-0.593101,-0.0282646
2.41162,-0.362141,-0.379399
2.42772,-0.244031,0.0141811
2.3884,-0.478984,-0.0141578
2.41087,-0.362027,-0.262602
2.35197,-0.592519,-0.226412
2.41625,-0.362835,0.0568551
2.34652,-0.591147,0.0281714
2.41496,-0.362642,-0.170764
2.4347,-0.244732,0.0712136
2.38024,-0.477347,0.0423744
2.43868,-0.245132,-0.15708
2.34658,-0.591162,-0.140929
2.40492,-0.361134,0.141627
2.41033,-0.361947,-0.113536
2.38517,-0.478336,-0.12749
2.40281,-0.360818,0.298336
2.43371,-0.244632,-0.0996514
2.3995,-0.360321,0.650153
2.40043,-0.36046,-0.0564829
2.44249,-0.253699,-0.0428631
2.37408,-0.484306,-0.0705155
2.41002,-0.370076,-0.682565
2.40382,-0.369125,0
2.34842,-0.599915,-0.028218
2.41432,-0.370736,-0.380014
2.43088,-0.252494,0.0142043
2.38288,-0.486102,-0.0141346
2.34999,-0.600316,-0.226412
2.40713,-0.369632,0.056669
2.34455,-0.598925,0.0281714
2.41375,-0.370648,-0.170764
2.43387,-0.252804,0.0712136
2.38648,-0.486836,0.0425141
2.43786,-0.253218,-0.15708
2.35235,-0.600917,-0.141394
2.40371,-0.369107,0.141627
2.41307,-0.370545,-0.113722
2.37574,-0.484646,-0.127072
2.42891,-0.252289,-0.0994886
2.39829,-0.368276,0.650153
2.40713,-0.369632,-0.056669
2.37629,-0.493404,-0.0706318
2.40252,-0.377514,0
2.35018,-0.609112,-0.0282646
2.4091,-0.378548,-0.379399
2.42601,-0.26055,0.0141811
2.37725,-0.493604,-0.0141113
2.40835,-0.378429,-0.262602
2.35174,-0.609514,-0.226784
2.41372,-0.379274,0.0568551
2.34244,-0.607105,0.0281714
2.41244,-0.379072,-0.170764
2.37693,-0.493537,0.0423744
2.44093,-0.262153,-0.157336
2.34637,-0.608123,-0.141162
2.4024,-0.377495,0.141627
2.3675,-0.491578,0.0985116
2.41176,-0.378965,-0.113722
2.37404,-0.492936,-0.127072
2.39638,-0.376549,0.297849
2.42801,-0.260765,-0.0994886
2.40977,-0.378653,-0.0567621
2.36664,-0.500455,-0.0703991
2.40112,-0.386317,0
2.34794,-0.617722,-0.0282646
2.4077,-0.387375,-0.379399
2.37975,-0.503227,-0.30961
2.37934,-0.503141,-0.0141346
2.41087,-0.387885,-0.26303
2.34563,-0.617116,-0.226412
2.40837,-0.387483,0.0567621
2.3402,-0.615687,0.0281714
2.41103,-0.387911,-0.170764
2.36728,-0.500591,0.0422348
2.43598,-0.270656,-0.15708
2.34799,-0.617735,-0.141394
2.401,-0.386298,0.141627
2.36568,-0.500252,0.0985116
2.3989,-0.38596,0.298336
2.42704,-0.269663,-0.0994886
2.40837,-0.387483,-0.0567621
2.43572,-0.278807,-0.0427933
2.36888,-0.509141,-0.0705155
2.39983,-0.394277,0
2.34974,-0.626535,-0.0283111
2.4025,-0.394717,-0.378784
2.42016,-0.277026,0.0141578
2.37375,-0.510188,-0.0141113
2.40565,-0.395233,-0.262602
2.34358,-0.624891,-0.226412
2.34201,-0.624474,0.028218
2.42712,-0.277822,0.0710973
2.36952,-0.509279,0.0423046
2.43111,-0.278279,-0.156824
2.33821,-0.62346,-0.140929
2.39577,-0.39361,0.141394
2.36401,-0.508094,0.0985116
2.39761,-0.393913,0.298336
2.42613,-0.27771,-0.0994886
2.40312,-0.394819,-0.056669
2.43473,-0.287308,-0.0427933
2.35927,-0.515699,-0.0702827
2.39449,-0.401989,0
2.40501,-0.403755,-0.379399
2.37586,-0.519325,-0.0141346
2.40425,-0.403628,-0.262602
2.33753,-0.632029,-0.22604
2.40173,-0.403205,0.056669
2.33595,-0.631601,0.0281714
2.4044,-0.403653,-0.170485
2.42216,-0.285824,0.0709809
2.36773,-0.517547,0.0423046
2.42615,-0.286296,-0.156568
2.33987,-0.63266,-0.141162
2.39044,-0.401309,0.141162
2.40014,-0.402937,0.298824
2.42118,-0.285708,-0.0993258
2.39779,-0.402543,-0.056576
2.42578,-0.29484,-0.0426537
2.35746,-0.523931,-0.0702827
2.37392,-0.527589,-0.486371
2.39307,-0.410345,0
2.34531,-0.642924,-0.0283111
2.39969,-0.41148,-0.378784
2.343,-0.64229,-0.226784
2.39637,-0.41091,0.056576
2.32988,-0.638694,0.0281249
2.40298,-0.412043,-0.170485
2.41718,-0.293795,0.0708645
2.33765,-0.640824,-0.141162
2.39296,-0.410326,0.141394
2.37082,-0.526901,-0.127281
2.38698,-0.4093,0.297361
2.42413,-0.29464,-0.0994886
2.39637,-0.41091,-0.056576
2.42865,-0.304226,-0.0427235
2.36722,-0.535214,-0.0706318
2.39549,-0.419804,0
2.33138,-0.648301,-0.0281714
2.39038,-0.418908,-0.377555
2.37249,-0.536405,-0.30961
2.41707,-0.302776,0.0141578
2.34446,-0.65194,-0.227155
2.40272,-0.421071,0.0567621
2.33138,-0.648301,0.0281714
2.40145,-0.420848,-0.170485
2.36786,-0.535359,0.0423744
2.428,-0.304145,-0.156824
2.33913,-0.650458,-0.141394
2.39144,-0.419094,0.141394
2.39683,-0.420039,-0.11335
2.37277,-0.536468,-0.12749
2.38937,-0.418731,0.297849
2.41511,-0.30253,-0.0991629
2.36436,-0.534567,0.441965
2.39878,-0.420381,-0.056669
2.36144,-0.542578,-0.0705155
2.39401,-0.428163,0
2.3368,-0.658605,-0.0282646
2.39279,-0.427945,-0.37817
2.3702,-0.54459,-0.0141346
2.39199,-0.427801,-0.261745
2.33834,-0.65904,-0.226784
2.33295,-0.65752,0.028218
2.41105,-0.310574,0.0707482
2.36208,-0.542725,0.0423046
2.42297,-0.312109,-0.156568
2.333,-0.657535,-0.141162
2.38996,-0.427439,0.141394
2.37088,-0.544747,-0.12749
2.38399,-0.42637,0.297361
2.41404,-0.310958,-0.0991629
2.3973,-0.428751,-0.056669
2.4225,-0.320649,-0.0426537
2.36343,-0.551727,-0.0706318
2.38857,-0.435799,0
2.33833,-0.667856,-0.0283111
2.39517,-0.437004,-0.378784
2.36869,-0.552955,-0.30961
2.41093,-0.319118,0.0141346
2.39831,-0.437576,-0.262602
2.33603,-0.667198,-0.226784
2.33064,-0.665659,0.028218
2.3906,-0.43617,-0.169927
2.40995,-0.318988,0.0707482
2.36407,-0.551876,0.0423744
2.42582,-0.321089,-0.156824
2.32685,-0.664578,-0.140929
2.38453,-0.435062,0.141162
2.39029,-0.436114,0.298336
2.4169,-0.319907,-0.0993258
2.38792,-0.435681,-0.0564829
2.42544,-0.328795,-0.0427235
2.3539,-0.557306,-0.0703991
2.39505,-0.444762,0
2.32854,-0.672978,-0.028218
2.3899,-0.443805,-0.37817
2.40992,-0.32669,0.0141346
2.36654,-0.560298,-0.0141346
2.39301,-0.444382,-0.262174
2.33009,-0.673428,-0.226412
2.39441,-0.444641,0.056669
2.33238,-0.674089,0.0282646
2.40894,-0.326557,0.0707482
2.36232,-0.5593,0.0423744
2.42085,-0.328172,-0.156568
2.32859,-0.672994,-0.141162
2.39493,-0.444739,0.141859
2.38853,-0.443551,-0.113164
2.36722,-0.560459,-0.12749
2.38501,-0.442896,0.297849
2.41588,-0.327499,-0.0993258
2.39047,-0.443911,-0.056576
2.42032,-0.336708,-0.0426537
2.35583,-0.566454,-0.0705155
2.38563,-0.451631,0
2.33001,-0.682226,-0.0282646
2.38834,-0.452144,-0.37817
2.41272,-0.335652,0.0141578
2.36068,-0.56762,-0.0141113
2.39144,-0.452733,-0.262174
2.33155,-0.682676,-0.226784
2.39284,-0.452997,0.056669
2.32617,-0.681102,0.028218
2.38766,-0.452016,-0.169927
2.40778,-0.334964,0.0707482
2.35647,-0.566608,0.0423046
2.42364,-0.33717,-0.156824
2.32623,-0.681118,-0.141162
2.38159,-0.450867,0.141162
2.39089,-0.452629,-0.11335
2.35748,-0.566852,-0.127072
2.37955,-0.45048,0.297361
2.41472,-0.33593,-0.0993258
2.38498,-0.451509,-0.0564829
2.34587,-0.573597,-0.0702827
2.37995,-0.460029,0
2.32354,-0.690029,-0.028218
2.3827,-0.460562,-0.377555
2.41142,-0.344913,0.0141578
2.35848,-0.57668,-0.0141113
2.38578,-0.461157,-0.261745
2.32891,-0.691624,-0.226784
2.32354,-0.690029,0.028218
2.38982,-0.461938,-0.170206
2.36232,-0.577618,-0.198529
2.40252,-0.343641,0.0706318
2.35816,-0.576602,0.0423744
2.41838,-0.345908,-0.156568
2.32742,-0.691182,-0.141394
2.37592,-0.459251,0.140929
2.3488,-0.574313,0.0985116
2.38914,-0.461806,-0.11335
2.36305,-0.577797,-0.12749
2.3778,-0.459614,0.297361
2.40946,-0.344633,-0.0991629
2.38716,-0.461422,-0.056576
2.35182,-0.582887,-0.0705155
2.38242,-0.468275,0
2.32136,-0.697325,-0.028218
2.38124,-0.468045,-0.377555
2.40636,-0.351908,0.0141346
2.36054,-0.585049,-0.0141346
2.38432,-0.46865,-0.261745
2.32673,-0.698937,-0.226784
2.38962,-0.469691,0.056669
2.32136,-0.697325,0.028218
2.38836,-0.469443,-0.170206
2.40143,-0.351187,0.0706318
2.34857,-0.582083,0.0422348
2.41333,-0.352927,-0.156312
2.32524,-0.69849,-0.141394
2.35734,-0.584257,-0.127281
2.38024,-0.467847,0.297849
2.40441,-0.351623,-0.0990001
2.38962,-0.469691,-0.056669
2.41264,-0.361863,-0.0425839
2.34967,-0.591503,-0.0705155
2.38853,-0.478576,0
2.32644,-0.708158,-0.0283111
2.38339,-0.477546,-0.37817
2.35878,-0.593798,-0.30961
2.40901,-0.361319,0.0141578
2.35062,-0.591744,-0.0140881
2.38259,-0.477386,-0.261745
2.32415,-0.70746,-0.226784
2.32262,-0.706993,0.0282646
2.40408,-0.360579,0.0707482
2.35418,-0.59264,0.0423744
2.41596,-0.362362,-0.156568
2.31502,-0.704682,-0.140929
2.35906,-0.593868,-0.12749
2.37851,-0.476568,0.297849
2.34287,-0.589792,0.197227
2.40706,-0.361026,-0.0991629
2.38396,-0.47766,-0.056576
2.4113,-0.370704,-0.0425839
2.33973,-0.598131,-0.0702827
2.38284,-0.486526,0
2.32383,-0.71668,-0.0283111
2.37775,-0.485487,-0.377555
2.40372,-0.369538,0.0141346
2.34844,-0.600355,-0.0140881
2.37693,-0.485319,-0.261317
2.31773,-0.7148,-0.226412
2.37827,-0.485595,0.0564829
2.32001,-0.715501,0.0282646
2.39879,-0.368781,0.0706318
2.35587,-0.602255,0.0424443
2.41462,-0.371214,-0.156568
2.31624,-0.71434,-0.141162
2.37489,-0.484905,0.141162
2.38026,-0.485999,-0.113164
2.353,-0.601521,-0.127281
2.38453,-0.486871,0.298824
2.40572,-0.369846,-0.0991629
2.34171,-0.606481,-0.0703991
2.37738,-0.493198,0
2.31775,-0.722786,-0.0282646
2.37621,-0.492955,-0.377555
2.40255,-0.377088,0.0141346
2.35041,-0.608733,-0.0141113
2.37539,-0.492784,-0.261317
2.31548,-0.722078,-0.226412
2.37674,-0.493064,0.0564829
2.31393,-0.721596,0.028218
2.38331,-0.494428,-0.170206
2.39762,-0.376315,0.0706318
2.35009,-0.608651,0.0423744
2.4095,-0.378179,-0.156312
2.3178,-0.722802,-0.141394
2.37727,-0.493174,0.141394
2.38263,-0.494287,-0.11335
2.3511,-0.60891,-0.127281
2.37132,-0.491941,0.297361
2.3388,-0.605725,0.197227
2.40454,-0.377402,-0.0991629
2.37282,-0.492252,-0.0563898
2.33948,-0.615059,-0.0703991
2.37164,-0.501081,0
2.31509,-0.731277,-0.0282646
2.36666,-0.500027,-0.376325
2.35243,-0.618466,-0.30961
2.40115,-0.385891,0.0141346
2.37746,-0.502309,-0.261745
2.31282,-0.73056,-0.226412
2.37883,-0.502599,0.056576
2.31127,-0.730072,0.028218
2.37758,-0.502335,-0.169927
2.34785,-0.61726,0.0423744
2.31133,-0.730089,-0.141162
2.37154,-0.501059,0.141162
2.3808,-0.503016,-0.11335
2.35271,-0.618539,-0.12749
2.37339,-0.501449,0.297849
2.39525,-0.384944,-0.0988373
2.37491,-0.501772,-0.0564829
2.40742,-0.395094,-0.0425839
2.34129,-0.623843,-0.0705155
2.36997,-0.508943,0
2.30884,-0.737732,-0.028218
2.37271,-0.509532,-0.377555
2.3427,-0.62422,-0.3086
2.39591,-0.393204,0.0141113
2.34997,-0.626157,-0.0141346
2.37578,-0.510191,-0.261745
2.31797,-0.740649,-0.227155
2.38106,-0.511324,0.056669
2.31265,-0.73895,0.0282646
2.372,-0.509379,-0.169648
2.33806,-0.622983,0.0422348
2.39498,-0.393052,-0.155545
2.30889,-0.73775,-0.141162
2.36596,-0.508082,0.140929
2.34679,-0.625309,-0.127281
2.36783,-0.508483,0.297361
2.33451,-0.622038,0.197227
2.39791,-0.393532,-0.0990001
2.36933,-0.508805,-0.0563898
2.40201,-0.403252,-0.0425141
2.33512,-0.631377,-0.0703991
2.372,-0.51848,0
2.31373,-0.748652,-0.0283111
2.37083,-0.518225,-0.377555
2.34423,-0.633838,-0.309105
2.39445,-0.401983,0.0141113
2.3438,-0.633722,-0.0141113
2.37001,-0.518046,-0.261317
2.31524,-0.74914,-0.227155
2.37526,-0.519193,0.056576
2.30992,-0.747421,0.0282646
2.37401,-0.518921,-0.169927
2.34348,-0.633636,0.0423744
2.4014,-0.403149,-0.156056
2.30617,-0.746207,-0.141162
2.36408,-0.51675,0.140929
2.33804,-0.632164,0.0986745
2.37723,-0.519625,-0.11335
2.34834,-0.634949,-0.12749
2.37371,-0.518854,0.298336
2.33222,-0.63059,0.197227
2.39645,-0.402318,-0.0990001
2.36745,-0.517486,-0.0563898
2.40453,-0.412311,-0.0425839
2.3149,-0.757969,-0.0283577
2.36901,-0.526497,-0.377555
2.40092,-0.41169,0.0141578
2.34157,-0.641899,-0.0141113
2.37595,-0.528041,-0.262174
2.31639,-0.758457,-0.227527
2.37343,-0.527481,0.056576
2.3111,-0.756724,0.0283111
2.37608,-0.52807,-0.170206
2.38812,-0.409496,0.0705155
2.3374,-0.640755,0.0423046
2.39604,-0.410854,-0.155801
2.31114,-0.756738,-0.141627
2.35837,-0.524133,0.140696
2.33196,-0.639265,0.0985116
2.34611,-0.643142,-0.12749
2.37188,-0.527137,0.298336
2.39503,-0.410681,-0.0990001
2.36563,-0.525746,-0.0563898
2.3952,-0.419322,-0.0424443
2.33451,-0.648734,-0.0705155
2.36442,-0.534145,0
2.31604,-0.767302,-0.0284042
2.36715,-0.534764,-0.377555
2.39159,-0.418689,0.0141113
2.34317,-0.65114,-0.0141346
2.36633,-0.534579,-0.261317
2.31373,-0.766538,-0.227527
2.37158,-0.535763,0.056576
2.30085,-0.762271,0.028218
2.37033,-0.535482,-0.169927
2.38668,-0.417829,0.0705155
2.34285,-0.651052,0.0424443
2.39853,-0.419904,-0.156056
2.31228,-0.766056,-0.141859
2.36042,-0.533242,0.140929
2.36575,-0.534447,-0.112978
2.34,-0.650258,-0.127281
2.35841,-0.532788,0.296874
2.32776,-0.646857,0.197227
2.38964,-0.418349,-0.0988373
2.36768,-0.534882,-0.0564829
2.33223,-0.656879,-0.0705155
2.36644,-0.54329,0
2.30576,-0.77284,-0.0283111
2.36527,-0.543023,-0.377555
2.34128,-0.659428,-0.30961
2.38617,-0.426331,0.0140881
2.34088,-0.659315,-0.0141346
2.36833,-0.543725,-0.261745
2.31104,-0.77461,-0.227527
2.30197,-0.771569,0.0282646
2.35678,-0.541074,-0.16909
2.33672,-0.658141,0.0423744
2.39705,-0.428274,-0.156056
2.3058,-0.772854,-0.141627
2.36243,-0.542372,0.141162
2.37166,-0.54449,-0.11335
2.34156,-0.659505,-0.12749
2.36814,-0.543683,0.298336
2.38423,-0.425985,-0.0986745
2.36969,-0.544038,-0.056576
2.33016,-0.664203,-0.0705155
2.36472,-0.550722,0
2.29954,-0.778797,-0.0282646
2.35586,-0.548658,-0.376325
2.38482,-0.433825,0.0140881
2.33495,-0.665569,-0.0141113
2.36274,-0.550261,-0.261317
2.3086,-0.781866,-0.227527
2.30332,-0.78008,0.0283111
2.36284,-0.550286,-0.169648
2.33079,-0.664383,0.0423046
2.39176,-0.435088,-0.155801
2.30715,-0.781375,-0.141859
2.36072,-0.549791,0.141162
2.32537,-0.662838,0.0985116
2.36605,-0.551032,-0.113164
2.35869,-0.549319,0.297361
2.38682,-0.434189,-0.0988373
2.36018,-0.549666,-0.0563898
2.38683,-0.443234,-0.0423744
2.32771,-0.672739,-0.0705155
2.36268,-0.559386,0
2.30423,-0.789814,-0.0283577
2.35768,-0.5582,-0.37694
2.33293,-0.674247,-0.309105
2.37928,-0.441833,0.0140648
2.3325,-0.674123,-0.0141113
2.3607,-0.558917,-0.261317
2.30572,-0.790322,-0.227527
2.30423,-0.789814,0.0283577
2.36081,-0.558942,-0.169648
2.33218,-0.674032,0.0423744
2.39408,-0.44458,-0.156056
2.35092,-0.556599,0.140696
2.32676,-0.672466,0.0986745
2.3679,-0.560621,-0.11335
2.33701,-0.675428,-0.12749
2.36825,-0.560704,0.298824
2.38521,-0.442934,-0.0988373
2.36204,-0.559234,-0.0564829
2.32163,-0.679331,-0.0703991
2.35693,-0.566283,0
2.29782,-0.796141,-0.0283111
2.35581,-0.566015,-0.37694
2.38566,-0.451207,0.0141113
2.32641,-0.680731,-0.0140881
2.35497,-0.565813,-0.260888
2.29932,-0.79666,-0.227155
2.36406,-0.567998,0.056576
2.3016,-0.797451,0.0283577
2.37684,-0.449538,0.0703991
2.32993,-0.681762,0.0423744
2.38867,-0.451775,-0.155801
2.29786,-0.796156,-0.141627
2.35294,-0.565325,0.140929
2.32069,-0.679056,0.0985116
2.36214,-0.567536,-0.113164
2.35866,-0.566699,0.297849
2.38765,-0.451584,-0.0990001
2.36018,-0.567064,-0.0564829
2.38375,-0.45947,-0.0423744
2.31924,-0.687431,-0.0703991
2.35105,-0.573559,0
2.30258,-0.806802,-0.0284042
2.35382,-0.574235,-0.37694
2.38408,-0.459532,0.0141113
2.32785,-0.689984,-0.0141113
2.35298,-0.57403,-0.260888
2.29652,-0.804681,-0.227155
2.3543,-0.574351,0.0563898
2.29503,-0.804157,0.0283111
2.36083,-0.575944,-0.169927
2.33137,-0.691027,0.0424443
2.39099,-0.460865,-0.156056
2.29507,-0.804172,-0.141627
2.35095,-0.573535,0.140929
2.36015,-0.575778,-0.113164
2.32853,-0.690185,-0.127281
2.35281,-0.573988,0.297361
2.32018,-0.687708,0.197553
2.38606,-0.459915,-0.0990001
2.35818,-0.575299,-0.0564829
2.3899,-0.469746,-0.0425141
2.32437,-0.698228,-0.0706318
2.3567,-0.584096,0
2.29207,-0.812563,-0.0283111
2.34786,-0.581908,-0.376325
2.33334,-0.700923,-0.310115
2.37845,-0.467496,0.0140881
2.32531,-0.698511,-0.0141113
2.35472,-0.583607,-0.261317
2.35994,-0.5849,0.056576
2.2883,-0.811227,0.0282646
2.35483,-0.583634,-0.169648
2.33291,-0.700795,-0.198855
2.33266,-0.700718,0.0425141
2.38537,-0.468856,-0.155801
2.29963,-0.815247,-0.142092
2.35271,-0.583108,0.141162
2.35802,-0.584425,-0.113164
2.33364,-0.701013,-0.1277
2.35069,-0.582608,0.297361
2.37652,-0.467116,-0.0986745
2.35606,-0.583938,-0.0564829
2.38441,-0.476885,-0.0424443
2.31821,-0.704768,-0.0705155
2.35087,-0.590933,0
2.29312,-0.821509,-0.0283577
2.34976,-0.590654,-0.37694
2.331,-0.708657,-0.310115
2.37689,-0.47538,0.0140881
2.32681,-0.707382,-0.0141346
2.35663,-0.592382,-0.261745
2.35799,-0.592723,0.056576
2.28936,-0.82016,0.0283111
2.35288,-0.591439,-0.169648
2.372,-0.474403,0.0703991
2.31884,-0.70496,0.0423046
2.37598,-0.475198,-0.155289
2.29316,-0.821521,-0.141859
2.34689,-0.589933,0.140929
2.31345,-0.70332,0.0985116
2.35607,-0.592241,-0.113164
2.3313,-0.708748,-0.1277
2.3526,-0.591368,0.297849
2.37496,-0.474994,-0.0986745
2.35799,-0.592723,-0.056576
2.37881,-0.484407,-0.0423744
2.32338,-0.715209,-0.0707482
2.34879,-0.599136,0
2.29024,-0.829508,-0.0283577
2.34385,-0.597875,-0.376325
2.37913,-0.484472,0.0141113
2.3205,-0.714323,-0.0141113
2.34299,-0.597656,-0.26046
2.29024,-0.829508,0.0283577
2.32019,-0.714226,0.0423744
2.3743,-0.483489,-0.155289
2.28652,-0.828161,-0.141627
2.34095,-0.597135,0.140696
2.3148,-0.712567,0.0986745
2.35012,-0.599474,-0.112978
2.32881,-0.716882,-0.1277
2.35436,-0.600558,0.298336
2.31285,-0.711967,0.197553
2.3772,-0.484079,-0.0988373
2.34815,-0.598973,-0.0563898
2.3731,-0.49231,-0.0423046
2.30929,-0.720149,-0.0703991
2.35045,-0.608743,0
2.29094,-0.839272,-0.0284042
2.34164,-0.606462,-0.376325
2.32587,-0.725319,-0.310115
2.36951,-0.491564,0.0140648
2.31787,-0.722823,-0.0141113
2.34078,-0.606239,-0.26046
2.34594,-0.607576,0.0563898
2.2947,-0.840648,0.0284508
2.35245,-0.609261,-0.169927
2.36854,-0.491364,0.0703991
2.31755,-0.722725,0.0423744
2.37251,-0.492188,-0.155289
2.29097,-0.839283,-0.142092
2.35177,-0.609086,-0.113164
2.35215,-0.609183,0.298336
2.31403,-0.721626,0.197878
2.37541,-0.492789,-0.0988373
2.34981,-0.608578,-0.0564829
2.37928,-0.501827,-0.0424443
2.31452,-0.730209,-0.0706318
2.34842,-0.616534,0
2.2919,-0.848253,-0.0284508
2.34726,-0.616231,-0.377555
2.31927,-0.731709,-0.0141346
2.34645,-0.616018,-0.261317
2.34392,-0.615352,0.0563898
2.28815,-0.846865,0.0284042
2.34656,-0.616046,-0.169648
2.3669,-0.499216,0.0703991
2.31515,-0.730407,0.0423744
2.37477,-0.500876,-0.155545
2.28443,-0.84549,-0.141859
2.34445,-0.615491,0.141162
2.30977,-0.72871,0.0986745
2.34974,-0.616881,-0.113164
2.31994,-0.73192,-0.12749
2.34243,-0.614963,0.297361
2.31162,-0.729295,0.197878
2.37376,-0.500663,-0.0988373
2.34778,-0.616367,-0.0564829
2.37752,-0.51013,-0.0424443
2.31195,-0.738283,-0.0706318
2.34239,-0.623699,0
2.28518,-0.854847,-0.0284042
2.34128,-0.623404,-0.37694
2.36611,-0.507681,0.0140648
2.3167,-0.7398,-0.0141346
2.34429,-0.624205,-0.261317
2.34948,-0.625588,0.056576
2.28518,-0.854847,0.0284042
2.34825,-0.62526,-0.169927
2.32046,-0.740998,-0.198855
2.31258,-0.738484,0.0423744
2.36911,-0.508325,-0.155289
2.28521,-0.854858,-0.142092
2.34228,-0.623671,0.141162
2.34371,-0.624051,-0.112978
2.31737,-0.740014,-0.12749
2.34027,-0.623136,0.297361
2.36809,-0.508108,-0.0986745
2.34175,-0.62353,-0.0563898
2.37191,-0.517159,-0.0423744
2.30949,-0.745946,-0.0706318
2.34417,-0.632505,0
2.28981,-0.865248,-0.0284974
2.3392,-0.631164,-0.37694
2.3605,-0.514673,0.0140416
2.30663,-0.74502,-0.0140881
2.34604,-0.633011,-0.261745
2.34353,-0.632334,0.0564829
2.27859,-0.861006,0.0283577
2.34231,-0.632004,-0.169648
2.31012,-0.746148,0.0423744
2.36351,-0.515328,-0.155033
2.28236,-0.862431,-0.142092
2.33635,-0.630395,0.140929
2.30856,-0.745643,0.0988373
2.34934,-0.633902,-0.11335
2.31871,-0.748922,-0.1277
2.34203,-0.631927,0.297849
2.3664,-0.515958,-0.0986745
2.33967,-0.631292,-0.0563898
2.37009,-0.525435,-0.0423744
2.30688,-0.754003,-0.0706318
2.3458,-0.641739,0
2.2793,-0.870382,-0.0284042
2.33317,-0.638283,-0.376325
2.35869,-0.522909,0.0140416
2.30781,-0.75431,-0.0141113
2.33231,-0.638048,-0.26046
2.34131,-0.64051,0.0564829
2.28678,-0.873235,0.0284974
2.34779,-0.642282,-0.170206
2.31536,-0.756776,-0.198855
2.36164,-0.523562,0.0703991
2.3113,-0.75545,0.0424443
2.36559,-0.524439,-0.155289
2.27933,-0.870393,-0.142092
2.30594,-0.753697,0.0988373
2.34326,-0.641044,-0.113164
2.31988,-0.758253,-0.127909
2.33981,-0.640099,0.297849
2.33745,-0.639455,-0.0563898
2.36814,-0.534119,-0.0423744
2.3041,-0.762453,-0.0706318
2.34344,-0.650333,0
2.2761,-0.87873,-0.0284042
2.34224,-0.650001,-0.37817
2.36456,-0.533311,0.0140881
2.31263,-0.765276,-0.0141578
2.33762,-0.648719,-0.261317
2.3351,-0.648018,0.0563898
2.27983,-0.88017,0.0284508
2.34542,-0.650883,-0.170206
2.3558,-0.531335,0.0702827
2.30852,-0.763916,0.0424443
2.35976,-0.532228,-0.155033
2.32793,-0.646029,0.140696
2.33705,-0.64856,-0.112978
2.31329,-0.765495,-0.1277
2.34127,-0.649732,0.298336
2.36264,-0.532878,-0.0986745
2.33895,-0.649087,-0.0564829
2.36627,-0.542382,-0.0423744
2.29763,-0.769222,-0.0705155
2.3373,-0.657426,0
2.28047,-0.889577,-0.0284974
2.33996,-0.658173,-0.37817
2.35489,-0.539774,0.0140416
2.30994,-0.773344,-0.0141578
2.33534,-0.656875,-0.261317
2.34052,-0.658331,0.056576
2.27302,-0.88667,0.0284042
2.33545,-0.656905,-0.169648
2.35783,-0.540448,0.0703991
2.30584,-0.77197,0.0424443
2.36178,-0.541354,-0.155289
2.3295,-0.655232,0.140929
2.33477,-0.656714,-0.112978
2.30682,-0.772297,-0.12749
2.33517,-0.656825,0.297849
2.30232,-0.770793,0.198204
2.36466,-0.542015,-0.0988373
2.33282,-0.656165,-0.0563898
2.31008,-0.782368,-0.0709809
2.33115,-0.664484,0
2.27735,-0.897532,-0.0284974
2.36468,-0.550713,0.0141113
2.30723,-0.781403,-0.0141578
2.33304,-0.665023,-0.261317
2.33821,-0.666497,0.056576
2.27363,-0.896065,0.0284508
2.34082,-0.667241,-0.170206
2.31095,-0.782662,-0.19918
2.30313,-0.780014,0.0424443
2.35988,-0.549595,-0.155289
2.33488,-0.665549,0.141394
2.29778,-0.778204,0.0988373
2.34015,-0.66705,-0.11335
2.31167,-0.782908,-0.127909
2.32522,-0.662796,0.296874
2.35497,-0.548453,-0.0985116
2.33436,-0.6654,-0.0564829
2.31125,-0.791319,-0.0710973
2.33277,-0.67332,0
2.27436,-0.905079,-0.0284974
2.35505,-0.556711,0.0140648
2.30463,-0.78905,-0.0141578
2.33464,-0.673859,-0.261745
2.33598,-0.674247,0.056576
2.27436,-0.905079,0.0284974
2.33859,-0.674999,-0.170206
2.29675,-0.786352,0.0423744
2.35416,-0.556499,-0.155033
2.32499,-0.671074,0.140929
2.29519,-0.78582,0.0988373
2.33792,-0.674807,-0.11335
2.30528,-0.789275,-0.1277
2.32301,-0.670503,0.296874
2.35314,-0.556259,-0.0985116
2.33214,-0.673138,-0.0564829
2.36055,-0.566719,-0.0423744
2.3047,-0.798074,-0.0709809
2.33041,-0.681459,0
2.26748,-0.91152,-0.0284508
2.3531,-0.564928,0.0140648
2.29808,-0.795781,-0.0141346
2.32464,-0.679772,-0.260888
2.33362,-0.682397,0.056576
2.27119,-0.913012,0.0284974
2.32856,-0.680919,-0.169648
2.30933,-0.799678,-0.199506
2.34825,-0.563765,0.0702827
2.29777,-0.795673,0.0424443
2.34832,-0.563781,-0.154777
2.32263,-0.679185,0.140929
2.29621,-0.795134,0.0990001
2.33555,-0.682964,-0.11335
2.30629,-0.798624,-0.127909
2.32828,-0.680836,0.297849
2.35507,-0.565403,-0.0986745
2.32978,-0.681274,-0.0564829
2.35846,-0.575367,-0.0423744
2.29421,-0.803871,-0.0707482
2.33173,-0.691132,0
2.27524,-0.924341,-0.0285905
2.35101,-0.573549,0.0140648
2.29892,-0.805521,-0.0141578
2.32594,-0.689418,-0.261317
2.32726,-0.689809,0.0564829
2.26783,-0.92133,0.0284974
2.32605,-0.689449,-0.169648
2.30639,-0.808137,-0.199506
2.29483,-0.804089,0.0424443
2.35011,-0.573331,-0.155033
2.28951,-0.802224,0.0988373
2.3292,-0.690384,-0.113164
2.30335,-0.807072,-0.127909
2.35298,-0.574031,-0.0986745
2.32726,-0.689809,-0.0564829
2.35654,-0.583185,-0.0423744
2.28777,-0.81014,-0.0706318
2.31793,-0.695412,0
2.27216,-0.931881,-0.0285905
2.35298,-0.582303,0.0140881
2.30001,-0.814475,-0.0141811
2.32745,-0.69827,-0.261745
2.32496,-0.697523,0.0564829
2.26106,-0.927328,0.0284508
2.32757,-0.698305,-0.169927
2.34426,-0.580145,0.0702827
2.29593,-0.81303,0.0425141
2.35207,-0.58208,-0.155289
2.32166,-0.696531,0.141162
2.33073,-0.699252,-0.11335
2.29313,-0.812039,-0.12749
2.34719,-0.58087,-0.0985116
2.32113,-0.696373,-0.0563898
2.29622,-0.822164,-0.0709809
2.31549,-0.703499,0
2.2652,-0.938276,-0.0285439
2.35093,-0.590513,0.0140881
2.29715,-0.822499,-0.0141811
2.325,-0.70639,-0.261745
2.32634,-0.706796,0.056576
2.2615,-0.936746,0.0284974
2.32512,-0.706426,-0.169927
2.30083,-0.823817,-0.199506
2.29307,-0.821039,0.0425141
2.3539,-0.591259,-0.155545
2.32686,-0.706953,0.141627
2.28776,-0.819136,0.0990001
