2.38085,-0.119358,-0.0277523
2.49629,0.241685,0.0145763
2.38661,-0.119647,-0.223066
2.38884,-0.119759,0.0278455
2.46318,0.117454,-0.172438
2.42792,-0.00296546,-0.198204
2.47935,0.240046,0.0724936
2.41963,-0.00295533,0.0422348
2.50314,0.242348,-0.161173
2.38496,-0.119564,-0.139069
2.45305,0.116971,0.143022
2.406,-0.00293869,0.0980231
2.45854,0.117233,-0.114653
2.42068,-0.00295661,-0.126862
2.43493,0.116107,0.299311
2.40001,-0.00293137,0.195926
2.4863,0.240718,-0.101768
2.39649,-0.00292707,0.436943
2.45255,0.116947,-0.0571343
2.41895,-0.0122433,-0.0703991
2.45364,0.107558,0
2.38437,-0.128715,-0.0277989
2.42838,-0.012291,-0.309105
2.48525,0.230987,0.0145065
2.39011,-0.129025,-0.223438
2.45697,0.107704,0.0572273
2.38037,-0.128499,0.0277523
2.45963,0.10782,-0.172159
2.42391,-0.0122684,-0.197878
2.4156,-0.0122263,0.042165
2.50007,0.232365,-0.160917
2.37252,-0.128076,-0.138371
2.43753,0.106851,0.142092
2.40997,-0.0121978,0.098186
2.45897,0.107791,-0.114653
2.42065,-0.0122519,-0.126862
2.43535,0.106756,0.299311
2.396,-0.0121271,0.1956
2.49119,0.231539,-0.101931
2.39646,-0.0121295,0.436943
2.49367,0.222993,-0.0437008
2.41489,-0.0206522,-0.0702827
2.37991,-0.136807,-0.0277523
2.46038,0.0992498,-0.383089
2.42435,-0.0207331,-0.3086
2.48205,0.221955,0.0144833
2.41587,-0.0206606,-0.0140416
2.46373,0.0993852,-0.265601
2.38567,-0.137139,-0.223066
2.45334,0.0989659,0.0571343
2.37592,-0.136578,0.0277058
2.47308,0.221152,0.0722609
2.49689,0.223282,-0.160661
2.40991,-0.0206096,0.098186
2.45933,0.0992076,-0.114653
2.4166,-0.0206668,-0.126653
2.43968,0.0984149,0.299799
2.39594,-0.0204902,0.1956
2.49198,0.222842,-0.101931
2.38854,-0.0204268,0.435508
2.44934,0.0988048,-0.0570412
2.40681,-0.0289848,-0.07005
2.37942,-0.145113,-0.0277523
2.45676,0.0905159,-0.382474
2.4868,0.213632,0.0145065
2.37723,-0.14498,-0.222322
2.44168,0.0899604,0.0568551
2.37942,-0.145113,0.0277523
2.45633,0.0905001,-0.17188
2.47384,0.212519,0.0722609
2.41146,-0.0290408,0.0420952
2.49368,0.214224,-0.160406
2.37555,-0.144878,-0.138603
2.43023,0.0895385,0.141627
2.40183,-0.0289249,0.0978603
2.45168,0.0903286,-0.11428
2.40852,-0.0290054,-0.126234
2.44001,0.0898987,0.299799
2.39586,-0.0288529,0.1956
2.48876,0.213801,-0.101768
2.38451,-0.0287163,0.43479
2.44967,0.0902549,-0.0570412
2.40271,-0.036487,-0.0699336
2.42764,-0.0368656,-0.485586
2.45061,0.082579,0
2.45308,0.0826623,-0.381859
2.47949,0.205157,0.01446
2.41168,-0.0366233,-0.0140183
2.38471,-0.152959,-0.223066
2.44595,0.082422,0.0569482
2.37895,-0.15259,0.0277523
2.45262,0.0826466,-0.171601
2.41967,-0.0367446,-0.197553
2.47449,0.204744,0.0722609
2.36712,-0.151831,-0.138138
2.43848,0.0821704,0.142092
2.40573,-0.0365329,0.0980231
2.45195,0.0826241,-0.11428
2.40442,-0.0365131,-0.126025
2.43631,0.0820972,0.299311
2.39177,-0.0363209,0.195275
2.48942,0.205979,-0.101768
2.38835,-0.0362689,0.435508
2.44995,0.0825567,-0.0570412
2.40655,-0.0453679,-0.07005
2.42356,-0.0456886,-0.484802
2.4469,0.073477,0
2.37438,-0.161037,-0.0277058
2.44942,0.0735527,-0.381244
2.48022,0.196069,0.01446
2.41153,-0.0454618,-0.0140183
2.37619,-0.161159,-0.222322
2.44624,0.0734571,0.0569482
2.44891,0.0735376,-0.171322
2.46327,0.194729,0.0719118
2.4112,-0.0454556,0.0420952
2.36654,-0.160505,-0.138138
2.43078,0.0729932,0.141627
2.40158,-0.0452742,0.0978603
2.44824,0.0735174,-0.114094
2.40827,-0.0454002,-0.126234
2.43263,0.0730485,0.298824
2.38763,-0.0450112,0.194949
2.47821,0.195909,-0.10128
2.3882,-0.0450219,0.435508
2.44224,0.0733371,-0.0568551
2.40638,-0.0537687,-0.07005
2.41947,-0.0540612,-0.484018
2.44314,0.0648285,0
2.36982,-0.16904,-0.0276592
2.45361,0.0651064,-0.381859
2.41193,-0.0538928,-0.307084
2.47291,0.186807,0.0144135
2.40736,-0.0537906,-0.0139951
2.37561,-0.169453,-0.222322
2.36982,-0.16904,0.0276592
2.41536,-0.0539694,-0.197227
2.46792,0.18643,0.0720282
2.39904,-0.0536046,0.0418858
2.48381,0.18763,-0.159638
2.36597,-0.168765,-0.138138
2.42703,0.0644011,0.141394
2.39741,-0.0535683,0.0976975
2.44449,0.0648643,-0.113908
2.4041,-0.0537178,-0.126025
2.43287,0.064556,0.298824
2.38746,-0.053346,0.194949
2.47887,0.187257,-0.10128
2.38409,-0.0532707,0.43479
2.43049,0.0644928,-0.056576
2.39818,-0.061961,-0.0698173
2.44335,0.0563007,0
2.3732,-0.177609,-0.0277058
2.44987,0.056451,-0.381244
2.41173,-0.0623109,-0.307084
2.46956,0.177887,0.0143903
2.40716,-0.0621928,-0.0139951
2.44918,0.056435,-0.263887
2.37103,-0.177447,-0.22195
2.43869,0.0561934,0.0567621
2.36921,-0.17731,0.0276592
2.44538,0.0563474,-0.171043
2.40719,-0.0621936,-0.196577
2.39883,-0.0619778,0.0418858
2.48445,0.17896,-0.159638
2.36138,-0.176724,-0.137906
2.39721,-0.0619358,0.0976975
2.4447,0.0563318,-0.113908
2.3999,-0.0620054,-0.125816
2.42514,0.0558811,0.297849
2.38726,-0.0616787,0.194949
2.47154,0.178029,-0.100954
2.37602,-0.0613884,0.433355
2.4267,0.055917,-0.0564829
2.43953,0.0476933,0
2.36858,-0.185579,-0.0276592
2.44215,0.0477445,-0.380014
2.46218,0.168718,0.0143438
2.36643,-0.185411,-0.221579
2.42688,0.0474459,0.0564829
2.44157,0.0477331,-0.170764
2.40695,-0.0705958,-0.196577
2.46118,0.16865,0.0717954
2.4026,-0.0704681,0.0419556
2.48108,0.170013,-0.159382
2.36075,-0.184966,-0.137906
2.41944,0.0473004,0.140929
2.38899,-0.0700689,0.0973718
2.43689,0.0476417,-0.113536
2.39967,-0.0703823,-0.125816
2.42135,0.0473378,0.297361
2.38304,-0.0698946,0.194624
2.47215,0.169401,-0.100954
2.3758,-0.0696819,0.433355
2.42688,0.0474459,-0.0564829
2.42769,0.0389848,0
2.36792,-0.193846,-0.0276592
2.43835,0.039156,-0.379399
2.41124,-0.0791463,-0.307084
2.46276,0.160123,0.0143438
2.40267,-0.078865,-0.0139718
2.44554,0.0392714,-0.263459
2.36577,-0.19367,-0.221579
2.43103,0.0390385,0.056576
2.35995,-0.193193,0.0275661
2.43374,0.039082,-0.170206
2.46176,0.160058,0.0717954
2.39834,-0.0787231,0.0418858
2.35611,-0.19288,-0.137673
2.4156,0.0387906,0.140696
2.39273,-0.0785388,0.0975347
2.43704,0.039135,-0.113536
2.39143,-0.0784962,-0.125397
2.41356,0.038758,0.296386
2.3788,-0.0780817,0.194298
2.47272,0.160771,-0.100954
2.37554,-0.0779746,0.433355
2.42703,0.0389742,-0.0564829
2.41064,-0.0875515,-0.482449
2.43181,0.0305606,0
2.36324,-0.20177,-0.0276127
2.42661,0.0304953,-0.377555
2.4633,0.151525,0.0143438
2.36508,-0.201927,-0.221579
2.43115,0.0305523,0.056576
2.35926,-0.20143,0.0275661
2.43386,0.0305864,-0.170206
2.39843,-0.0871083,-0.195926
2.35543,-0.201103,-0.137673
2.4237,0.0304587,0.141162
2.38844,-0.0867454,0.0973718
2.43716,0.0306279,-0.113536
2.38715,-0.0866984,-0.125188
2.41368,0.0303328,0.296386
2.37453,-0.0862401,0.193973
2.45731,0.151157,-0.100303
2.37132,-0.0861235,0.432638
2.42315,0.0304518,-0.0563898
2.3851,-0.0949616,-0.0694682
2.41032,-0.0959657,-0.482449
2.4279,0.0220355,0
2.36252,-0.210018,-0.0276127
2.43066,0.0220606,-0.37817
2.4027,-0.0956622,-0.306074
2.45583,0.142462,0.0142973
2.36436,-0.210181,-0.221579
2.43124,0.0220659,0.056576
2.35854,-0.209664,0.0275661
2.43795,0.0221267,-0.170485
2.39812,-0.0954799,-0.195926
2.45084,0.142173,0.0714464
2.38974,-0.0951465,0.0417462
2.46678,0.143098,-0.158359
2.35073,-0.20897,-0.137441
2.41581,0.0219258,0.140696
2.38813,-0.0950821,0.0973718
2.43326,0.0220842,-0.11335
2.39082,-0.0951894,-0.125397
2.41774,0.0219433,0.296874
2.46182,0.14281,-0.100466
2.37494,-0.0945569,0.433355
2.42324,0.0219933,-0.0563898
2.46392,0.135166,-0.0430725
2.41,-0.103537,-0.482449
2.35787,-0.217073,-0.0275661
2.43072,0.0144243,-0.37817
2.39842,-0.10304,-0.305569
2.45627,0.134746,0.0142973
2.38976,-0.102667,-0.0139021
2.43388,0.0144431,-0.262174
2.35575,-0.216878,-0.220835
2.4273,0.0144041,0.0564829
2.43401,0.0144439,-0.170206
2.39382,-0.102842,-0.1956
2.45128,0.134473,0.0714464
2.39343,-0.102825,0.041816
2.46324,0.135129,-0.158103
2.34609,-0.215988,-0.137208
2.38781,-0.102584,0.0973718
2.43332,0.0144398,-0.11335
2.39051,-0.1027,-0.125397
2.40986,0.0143006,0.295899
2.36992,-0.101815,0.193647
2.45826,0.134856,-0.100303
2.36676,-0.10168,0.43192
2.4153,0.0143329,-0.0562037
2.4644,0.126135,-0.0430725
2.40569,-0.112187,-0.481664
2.42399,0.00549988,0
2.35706,-0.225713,-0.0275661
2.4268,0.00550625,-0.377555
2.39802,-0.11183,-0.305569
2.45275,0.125538,0.0142741
2.42994,0.00551336,-0.261745
2.41134,0.00547117,0.0561107
2.43006,0.00551364,-0.169927
2.39343,-0.111615,-0.1956
2.44377,0.125079,0.0712136
2.38904,-0.111411,0.0417462
2.4677,0.126304,-0.158359
2.34528,-0.224585,-0.137208
2.40791,0.0054634,0.140231
2.37944,-0.110963,0.0970462
2.42536,0.00550299,-0.112978
2.38214,-0.111089,-0.124978
2.40593,0.00545888,0.295411
2.37352,-0.110687,0.193973
2.45874,0.125845,-0.100303
2.36638,-0.110354,0.43192
2.41934,0.00548932,-0.0562968
2.40135,-0.120807,-0.48088
2.42,-0.00337896,0
2.35223,-0.233955,-0.0275195
2.4268,-0.00338846,-0.377555
2.4492,0.116358,0.0142508
2.34617,-0.233352,-0.220092
2.41934,-0.00337804,0.0562968
2.34427,-0.233163,0.0274264
2.41809,-0.0033763,-0.16909
2.393,-0.120387,-0.1956
2.44021,0.115931,0.0710973
2.38862,-0.120166,0.0417462
2.46017,0.116879,-0.157847
2.34841,-0.233575,-0.137441
2.40392,-0.00335651,0.139999
2.37902,-0.119683,0.0970462
2.42137,-0.00338088,-0.112791
2.38172,-0.119819,-0.124978
2.39799,-0.00334823,0.294436
2.36911,-0.119185,0.193647
2.36202,-0.118828,0.431203
2.41934,-0.00337804,-0.0562968
2.39308,-0.128767,-0.479311
2.41597,-0.0118068,0
2.3514,-0.242164,-0.0275195
2.41492,-0.0118016,-0.37571
2.38924,-0.12856,-0.304559
2.44559,0.107632,0.0142276
2.34534,-0.24154,-0.220092
2.41532,-0.0118036,0.0562037
2.3514,-0.242164,0.0275195
2.42206,-0.0118365,-0.169369
2.38063,-0.128097,-0.194624
2.38419,-0.128288,0.0416763
2.45658,0.108116,-0.157591
2.35156,-0.24218,-0.137673
2.4039,-0.0117478,0.139999
2.37858,-0.127987,0.0970462
2.42534,-0.0118525,-0.112978
2.37729,-0.127917,-0.124769
2.4059,-0.0117576,0.295411
2.44361,0.107545,-0.0996514
2.36553,-0.127284,0.43192
2.41532,-0.0118036,-0.0562037
2.45757,0.100425,-0.0429329
2.36716,-0.134832,-0.0690027
2.38874,-0.136061,-0.478526
2.41192,-0.0193646,0
2.41882,-0.01942,-0.376325
2.38882,-0.136065,-0.304559
2.44192,0.0997852,0.0142043
2.34457,-0.248907,-0.220092
2.40727,-0.0193272,0.0560176
2.41802,-0.0194135,-0.16909
2.38021,-0.135575,-0.194624
2.37579,-0.135323,0.0415367
2.45691,0.100398,-0.157591
2.34681,-0.249145,-0.137441
2.40385,-0.0192998,0.139999
2.37817,-0.135459,0.0970462
2.4213,-0.0194398,-0.112791
2.37688,-0.135385,-0.124769
2.40585,-0.0193158,0.295411
2.36031,-0.134441,0.192997
2.44792,0.100031,-0.0998143
2.36511,-0.134715,0.43192
2.41527,-0.0193914,-0.0562037
2.39214,-0.145053,-0.479311
2.41583,-0.0282513,0
2.34572,-0.257727,-0.027473
2.41478,-0.0282391,-0.37571
2.38435,-0.14458,-0.304054
2.43827,0.0906858,0.0141811
2.42182,-0.0283214,-0.260888
2.34761,-0.257934,-0.220463
2.41518,-0.0282437,0.0562037
2.41793,-0.0282758,-0.16909
2.3797,-0.144298,-0.194624
2.37927,-0.144272,0.0416065
2.44928,0.0910952,-0.15708
2.33398,-0.256436,-0.136743
2.39578,-0.0280168,0.139534
2.37766,-0.144174,0.0970462
2.41721,-0.0282675,-0.112605
2.37238,-0.143854,-0.12456
2.39386,-0.0279943,0.293949
2.3598,-0.143091,0.192997
2.44428,0.0909093,-0.0996514
2.35675,-0.142906,0.430485
2.41118,-0.0281969,-0.0561107
2.43823,0.0825885,-0.0425839
2.34486,-0.265505,-0.027473
2.41468,-0.0362466,-0.37571
2.38386,-0.152486,-0.304054
2.43856,0.0825997,0.0141811
2.3791,-0.152182,-0.0138556
2.39908,-0.0360125,0.0558315
2.34088,-0.265055,0.0274264
2.37523,-0.151934,-0.194298
2.42958,0.0822955,0.0707482
2.37478,-0.151906,0.0415367
2.45356,0.0831077,-0.157336
2.34105,-0.265073,-0.137208
2.39567,-0.0359613,0.139534
2.3652,-0.151293,0.0965577
2.40512,-0.0361032,-0.112047
2.37189,-0.151721,-0.12456
2.39772,-0.0359921,0.294436
2.35931,-0.150916,0.192997
2.44057,0.0826679,-0.0994886
2.35626,-0.150721,0.430485
2.40308,-0.0360725,-0.0559246
2.37933,-0.160955,-0.476957
2.39958,-0.0448175,0
2.41453,-0.0450966,-0.37571
2.43485,0.0735406,0.0141578
2.41759,-0.0451538,-0.26046
2.33784,-0.273392,-0.21972
2.40293,-0.04488,0.0559246
2.33592,-0.273168,0.0273798
2.40172,-0.0448573,-0.167974
2.37863,-0.160908,-0.194624
2.42587,0.0732693,0.0706318
2.37421,-0.160609,0.0415367
2.44586,0.0738734,-0.156824
2.3361,-0.273188,-0.136976
2.39153,-0.0446671,0.139301
2.36064,-0.159691,0.0963948
2.40897,-0.0449928,-0.112233
2.36733,-0.160143,-0.12435
2.38963,-0.0446317,0.293461
2.35875,-0.159562,0.192997
2.44086,0.0737222,-0.0994886
2.35569,-0.159356,0.430485
2.40293,-0.04488,-0.0559246
2.44675,0.0653525,-0.0427235
2.35704,-0.167714,-0.06877
2.37485,-0.168981,-0.476173
2.39941,-0.0531933,0
2.33893,-0.281799,-0.0274264
2.4104,-0.053437,-0.375095
2.3827,-0.16954,-0.304054
2.43509,0.065041,0.0141578
2.41742,-0.0535925,-0.26046
2.33687,-0.281551,-0.21972
2.40276,-0.0532675,0.0559246
2.33893,-0.281799,0.0274264
2.40553,-0.053329,-0.168253
2.37408,-0.168927,-0.194298
2.37364,-0.168895,0.0415367
2.44611,0.0653353,-0.156824
2.33909,-0.281819,-0.137208
2.39535,-0.0531033,0.139534
2.37203,-0.168781,0.0968833
2.41279,-0.0534899,-0.112419
2.35879,-0.167839,-0.123932
2.38549,-0.0528848,0.292974
2.35022,-0.167229,0.192346
2.43311,0.0649882,-0.0991629
2.35512,-0.167578,0.430485
2.39876,-0.0531789,-0.0558315
2.44297,0.0567186,-0.0426537
2.36043,-0.176239,-0.0688864
2.37815,-0.177562,-0.476957
2.40321,-0.0616711,0
2.33793,-0.289961,-0.0274264
2.40625,-0.0617492,-0.37448
2.37814,-0.177561,-0.303549
2.42731,0.0563549,0.0141113
2.41324,-0.0619285,-0.260032
2.33192,-0.289216,-0.219348
2.39856,-0.0615518,0.0558315
2.33396,-0.289469,0.0273798
2.40932,-0.0618279,-0.168532
2.36552,-0.176619,-0.193647
2.42232,0.0562392,0.0705155
2.36904,-0.176882,0.0414669
2.44233,0.0567037,-0.156568
2.33809,-0.289982,-0.137208
2.39116,-0.0613619,0.139301
2.36744,-0.176762,0.0967205
2.4046,-0.0617068,-0.112047
2.36217,-0.176369,-0.124141
2.38926,-0.0613132,0.293461
2.34962,-0.175432,0.192346
2.42933,0.0564019,-0.0990001
2.35452,-0.175798,0.430485
2.39856,-0.0615518,-0.0558315
2.43116,0.047954,-0.0424443
2.3598,-0.184477,-0.0688864
2.38143,-0.186168,-0.477742
2.39898,-0.0699429,0
2.3369,-0.29812,-0.0274264
2.40207,-0.070033,-0.373865
2.36959,-0.185243,-0.302539
2.42749,0.0478816,0.0141113
2.36873,-0.185175,-0.0138091
2.40903,-0.070236,-0.259603
2.32694,-0.29685,-0.218976
2.40233,-0.0700405,0.0559246
2.40111,-0.0700051,-0.167974
2.36489,-0.184875,-0.193647
2.41851,0.0477045,0.0703991
2.36443,-0.184839,0.0413971
2.43453,0.0480206,-0.156056
2.32915,-0.297131,-0.136743
2.38694,-0.0695918,0.139069
2.36283,-0.184714,0.0965577
2.40038,-0.0699836,-0.111861
2.36154,-0.184613,-0.124141
2.38507,-0.0695373,0.292974
2.35297,-0.183943,0.192671
2.42552,0.0478428,-0.0988373
2.34997,-0.183709,0.429768
2.39034,-0.0696909,-0.0556454
2.4313,0.0398918,-0.0424443
2.37298,-0.193427,-0.476173
2.39874,-0.0778978,0
2.40183,-0.0779982,-0.373865
2.37292,-0.193422,-0.303044
2.42363,0.0397659,0.0140881
2.40879,-0.0782243,-0.259603
2.322,-0.304048,-0.218604
2.39009,-0.0776171,0.0556454
2.32797,-0.30483,0.0273333
2.40087,-0.0779671,-0.167974
2.36824,-0.19304,-0.193973
2.43468,0.0399471,-0.156056
2.33211,-0.305372,-0.136976
2.3827,-0.0773772,0.138836
2.35822,-0.192223,0.0963948
2.38815,-0.0775541,-0.111302
2.35694,-0.192119,-0.123932
2.38482,-0.077446,0.292974
2.34837,-0.191421,0.192346
2.42566,0.0397992,-0.0988373
2.34935,-0.191501,0.429768
2.39409,-0.0777469,-0.0557385
2.43543,0.0314563,-0.0425141
2.36447,-0.201044,-0.474604
2.38246,-0.0856954,0
2.33085,-0.313487,-0.0273798
2.40154,-0.0863816,-0.373865
2.37223,-0.201704,-0.303044
2.42776,0.0313573,0.0141113
2.40055,-0.0863461,-0.258747
2.32092,-0.312151,-0.218604
2.38981,-0.0859597,0.0556454
2.32293,-0.312421,0.0272867
2.39261,-0.0860603,-0.167416
2.36358,-0.200968,-0.193647
2.41478,0.0311896,0.0702827
2.36311,-0.200928,0.0413971
2.43081,0.0313967,-0.155801
2.32311,-0.312446,-0.13651
2.38242,-0.0856939,0.138836
2.35753,-0.200454,0.0963948
2.39585,-0.0861771,-0.111675
2.38057,-0.0856274,0.292486
2.34769,-0.199617,0.192346
2.42179,0.0312802,-0.0986745
2.34082,-0.199033,0.428333
2.38981,-0.0859597,-0.0556454
2.36376,-0.209296,-0.474604
2.38614,-0.0941689,0
2.32578,-0.321074,-0.0273333
2.38937,-0.0942964,-0.37202
2.36756,-0.209633,-0.302539
2.42385,0.0228449,0.0140881
2.40024,-0.0947251,-0.258747
2.31587,-0.319706,-0.218233
2.3855,-0.0941434,0.0555524
2.38432,-0.0940969,-0.166857
2.35492,-0.208514,-0.192997
2.4309,0.0229114,-0.155801
2.32201,-0.320553,-0.13651
2.38211,-0.0940096,0.138836
2.34885,-0.207977,0.0960692
2.39154,-0.094382,-0.111489
2.34758,-0.207864,-0.123513
2.37232,-0.0936235,0.291512
2.34301,-0.207459,0.19202
2.41789,0.0227887,-0.0985116
2.34404,-0.20755,0.42905
2.39349,-0.0944588,-0.0557385
2.43159,0.0140051,-0.0424443
2.36297,-0.217959,-0.474604
2.38179,-0.102742,0
2.32459,-0.329597,-0.0273333
2.39691,-0.103394,-0.37325
2.35887,-0.21758,-0.301529
2.41592,0.0139149,0.0140416
2.31863,-0.328751,-0.218604
2.38913,-0.103058,0.0556454
2.32459,-0.329597,0.0273333
2.38396,-0.102835,-0.166857
2.35811,-0.21751,-0.193322
2.35365,-0.217098,0.0412575
2.419,0.0139326,-0.155033
2.32477,-0.329622,-0.136743
2.37776,-0.102568,0.138603
2.35206,-0.216952,0.096232
2.39517,-0.103319,-0.111675
2.3468,-0.216467,-0.123513
2.37196,-0.102318,0.291512
2.34223,-0.216045,0.19202
2.41795,0.0139266,-0.0985116
2.33934,-0.215779,0.428333
2.38913,-0.103058,-0.0556454
2.41962,0.00591228,-0.0422348
2.34034,-0.2237,-0.0684209
2.35833,-0.22542,-0.473819
2.38543,-0.110825,0
2.39655,-0.111342,-0.37325
2.36209,-0.225779,-0.302034
2.41595,0.00590331,0.0140416
2.35722,-0.225313,-0.0137626
2.39157,-0.11111,-0.25789
2.31753,-0.336438,-0.218604
2.38079,-0.110609,0.0554593
2.31953,-0.336729,0.0272867
2.3836,-0.11074,-0.166857
2.35738,-0.225329,-0.193322
2.35292,-0.224902,0.0412575
2.41504,0.00590107,-0.154777
2.31181,-0.335608,-0.136045
2.3774,-0.110452,0.138603
2.3553,-0.22513,0.0963948
2.39482,-0.111261,-0.111675
2.3421,-0.223868,-0.123304
2.36765,-0.109999,0.291024
2.3415,-0.223811,0.19202
2.41799,0.00590828,-0.0985116
2.33469,-0.223161,0.427615
2.38079,-0.110609,-0.0554593
2.41963,-0.00253381,-0.0422348
2.36144,-0.234038,-0.474604
2.38503,-0.119151,0
2.32229,-0.345412,-0.0273333
2.38826,-0.119312,-0.37202
2.35734,-0.233632,-0.301529
2.41596,-0.00252996,0.0140416
2.3872,-0.119259,-0.257461
2.31634,-0.344526,-0.218604
2.38438,-0.119119,0.0555524
2.31834,-0.344823,0.0272867
2.3832,-0.11906,-0.166857
2.35261,-0.233163,-0.192997
2.40298,-0.00251637,0.0699336
2.35212,-0.233114,0.0412575
2.41904,-0.00253318,-0.155033
2.31852,-0.344851,-0.13651
2.37301,-0.118551,0.138371
2.33859,-0.231774,0.0957435
2.37446,-0.118623,-0.110744
2.34925,-0.23283,-0.123722
2.37121,-0.118461,0.291512
2.34071,-0.231983,0.19202
2.41,-0.00252372,-0.098186
2.3339,-0.231309,0.427615
2.37639,-0.11872,-0.0553663
2.41161,-0.0105227,-0.0420952
2.35284,-0.241068,-0.473035
2.37663,-0.126634,0
2.31718,-0.352509,-0.0272867
2.38785,-0.127231,-0.37202
2.3605,-0.241852,-0.302034
2.41594,-0.0105416,0.0140416
2.39076,-0.127387,-0.25789
2.30731,-0.351007,-0.217861
2.37998,-0.126812,0.0554593
2.31718,-0.352509,0.0272867
2.38279,-0.126962,-0.166857
2.35579,-0.24137,-0.193322
2.40296,-0.0104849,0.0699336
2.42301,-0.0105724,-0.155289
2.31342,-0.351937,-0.136278
2.37261,-0.126419,0.138371
2.33384,-0.23912,0.0955807
2.37405,-0.126496,-0.110744
2.34052,-0.239805,-0.123304
2.36684,-0.126112,0.291024
2.33596,-0.239338,0.191695
2.40598,-0.0104981,-0.0980231
2.32921,-0.238646,0.426898
2.37599,-0.126599,-0.0553663
2.41555,-0.0193937,-0.042165
2.33389,-0.247773,-0.0683046
2.34804,-0.249276,-0.47225
2.37216,-0.135116,0
2.31587,-0.361,-0.0272867
2.38342,-0.135758,-0.371406
2.35565,-0.250083,-0.301529
2.41188,-0.0193642,0.0140183
2.30994,-0.360075,-0.218233
2.37151,-0.13508,0.0552732
2.31192,-0.360384,0.0272401
2.38231,-0.135695,-0.166857
2.34696,-0.249161,-0.192671
2.41896,-0.0194211,-0.155033
2.31606,-0.361029,-0.13651
2.36814,-0.134888,0.138138
2.33692,-0.248095,0.0957435
2.37756,-0.135424,-0.11093
2.33962,-0.248382,-0.123304
2.36636,-0.134786,0.291024
2.32714,-0.247056,0.191044
2.40593,-0.0193164,-0.0980231
2.33223,-0.247597,0.427615
2.37551,-0.135307,-0.0553663
2.33301,-0.255918,-0.0683046
2.34326,-0.257043,-0.471466
2.37566,-0.143637,0
2.31065,-0.368452,-0.0272401
2.38688,-0.144315,-0.37202
2.34687,-0.257439,-0.300518
2.4038,-0.027691,0.0139718
2.38582,-0.144251,-0.257461
2.3126,-0.368763,-0.218604
2.37502,-0.143598,0.0553663
2.37784,-0.143769,-0.166578
2.34211,-0.256917,-0.192346
2.34557,-0.257296,0.0411877
2.4069,-0.0277267,-0.154266
2.31478,-0.369111,-0.13651
2.36766,-0.143153,0.138138
2.34398,-0.257122,0.0960692
2.38107,-0.143964,-0.111116
2.33477,-0.256111,-0.123094
2.36192,-0.142806,0.290537
2.33022,-0.255613,0.191369
2.40185,-0.0276685,-0.0978603
2.32744,-0.255307,0.426898
2.37901,-0.14384,-0.0554593
2.40736,-0.0361368,-0.0420254
2.35014,-0.266103,-0.473035
2.37115,-0.151673,0
2.30935,-0.376515,-0.0272401
2.37847,-0.152141,-0.370791
2.34596,-0.26563,-0.300518
2.40369,-0.0360817,0.0139718
2.34498,-0.265518,-0.0137161
2.37339,-0.151817,-0.256176
2.30737,-0.376193,-0.218233
2.3745,-0.151888,0.0553663
2.3054,-0.375872,0.0271936
2.36538,-0.151304,-0.165741
2.33724,-0.264642,-0.19202
2.39472,-0.035947,0.0697009
2.34466,-0.265482,0.0411877
2.40679,-0.0361282,-0.154266
2.30166,-0.375261,-0.135813
2.36316,-0.151162,0.137906
2.34307,-0.265302,0.0960692
2.37656,-0.152019,-0.11093
2.32989,-0.26381,-0.122885
2.3614,-0.15105,0.290537
2.32932,-0.263745,0.191369
2.40174,-0.0360524,-0.0978603
2.33044,-0.263873,0.427615
2.3745,-0.151888,-0.0553663
2.41123,-0.044193,-0.0420952
2.3828,-0.160354,-0.668547
2.34146,-0.272987,-0.471466
2.36266,-0.158998,0
2.30809,-0.384171,-0.0272401
2.38584,-0.160559,-0.37202
2.34113,-0.272948,-0.300013
2.40356,-0.0440524,0.0139718
2.34011,-0.27283,-0.0136929
2.37288,-0.159686,-0.256176
2.37,-0.159492,0.0552732
2.30809,-0.384171,0.0272401
2.36884,-0.159415,-0.16602
2.34427,-0.273315,-0.192671
2.39059,-0.0438147,0.0695846
2.40666,-0.0441093,-0.154266
2.29646,-0.382236,-0.13558
2.35866,-0.15873,0.137673
2.33424,-0.272145,0.0957435
2.36807,-0.159363,-0.110558
2.33694,-0.27246,-0.123304
2.35693,-0.158613,0.290049
2.32843,-0.271468,0.191369
2.4056,-0.0440899,-0.0980231
2.32174,-0.270688,0.42618
2.37,-0.159492,-0.0552732
2.40706,-0.0525222,-0.0420254
2.37838,-0.168399,-0.667469
2.3581,-0.166962,0
2.30279,-0.391555,-0.0271936
2.38132,-0.168607,-0.371406
2.3441,-0.281592,-0.300518
2.39939,-0.0523548,0.0139486
2.33914,-0.280996,-0.0136929
2.36834,-0.167687,-0.255748
2.36943,-0.167764,0.0552732
2.30279,-0.391555,0.0271936
2.36429,-0.167401,-0.165741
2.33934,-0.28102,-0.192346
2.39442,-0.0522463,0.0697009
2.39452,-0.0522485,-0.153498
2.29905,-0.390919,-0.135813
2.35809,-0.166962,0.137673
2.32534,-0.279338,0.0954179
2.3675,-0.167628,-0.110558
2.3524,-0.166559,0.289562
2.32351,-0.279119,0.191044
2.40144,-0.0523995,-0.0978603
2.31297,-0.277852,0.424745
2.36544,-0.167482,-0.0551802
2.39887,-0.0607217,-0.0418858
2.32133,-0.287079,-0.0680718
2.37778,-0.1767,-0.667469
2.3356,-0.288845,-0.470682
2.3575,-0.175192,0
2.30141,-0.399591,-0.0271936
2.37283,-0.176332,-0.370176
2.3431,-0.289772,-0.300518
2.39919,-0.0607299,0.0139486
2.3717,-0.176248,-0.256176
2.29553,-0.39857,-0.217489
2.36883,-0.176034,0.0552732
2.30141,-0.399591,0.0271936
2.36369,-0.175653,-0.165741
2.33439,-0.288695,-0.19202
2.33783,-0.289121,0.0411179
2.4023,-0.0608087,-0.15401
2.30161,-0.399625,-0.136045
2.35749,-0.175192,0.137673
2.32435,-0.287453,0.0954179
2.35893,-0.175299,-0.110186
2.32309,-0.287298,-0.122675
2.3518,-0.174769,0.289562
2.31857,-0.286738,0.190718
2.31979,-0.28689,0.42618
2.36484,-0.175738,-0.0551802
2.39864,-0.0690949,-0.0418858
2.33069,-0.296501,-0.469897
2.35687,-0.183421,0
2.29212,-0.406226,-0.0271004
2.36432,-0.184,-0.368946
2.33814,-0.297449,-0.300013
2.39497,-0.0689891,0.0139253
2.35918,-0.1836,-0.254891
2.29804,-0.407275,-0.217861
2.36421,-0.183992,0.0551802
2.3,-0.407622,0.0271936
2.33337,-0.296842,-0.19202
2.33284,-0.296775,0.0410481
2.39808,-0.0690789,-0.153754
2.3002,-0.407657,-0.136045
2.35289,-0.18311,0.137441
2.3273,-0.29607,0.0955807
2.36229,-0.183842,-0.110372
2.32207,-0.295405,-0.122675
2.35118,-0.182978,0.289562
2.31755,-0.29483,0.190718
2.3459,-0.182567,0.630483
2.3682,-0.184302,-0.0552732
2.39039,-0.0772091,-0.0417462
2.31926,-0.303278,-0.0680718
2.36881,-0.192671,-0.665312
2.33353,-0.305143,-0.470682
2.35622,-0.191647,0
2.37155,-0.192893,-0.370176
2.33709,-0.305609,-0.300013
2.39071,-0.0772196,0.0139021
2.33211,-0.304957,-0.0136696
2.35852,-0.191834,-0.254891
2.29269,-0.414586,-0.217489
2.29463,-0.414936,0.027147
2.35446,-0.191503,-0.165183
2.33232,-0.304985,-0.19202
2.38575,-0.0770591,0.0694682
2.33179,-0.304916,0.0410481
2.39783,-0.0774494,-0.153754
2.29876,-0.415684,-0.136045
2.35223,-0.191322,0.137441
2.32625,-0.304192,0.0955807
2.36561,-0.192411,-0.110558
2.32895,-0.304545,-0.123094
2.35053,-0.191184,0.289562
2.31651,-0.302918,0.190718
2.3491,-0.191068,0.631518
2.30993,-0.302058,0.424745
2.35957,-0.191919,-0.0550871
2.39811,-0.0854203,-0.0418858
2.31428,-0.310436,-0.0679555
2.32861,-0.312358,-0.469897
2.35956,-0.199796,0
2.29717,-0.423268,-0.0271936
2.36695,-0.200423,-0.369561
2.32819,-0.312302,-0.299003
2.39044,-0.0851471,0.0139021
2.3658,-0.200325,-0.255748
2.28738,-0.421464,-0.217117
2.3629,-0.20008,0.0551802
2.29324,-0.422543,0.027147
2.35381,-0.19931,-0.165183
2.3313,-0.312718,-0.19202
2.38548,-0.0849701,0.0694682
2.33077,-0.312647,0.0410481
2.38958,-0.0851163,-0.153242
2.29344,-0.422581,-0.135813
2.35557,-0.199459,0.137673
2.31334,-0.31031,0.0950922
2.357,-0.19958,-0.110186
2.32001,-0.311204,-0.122675
2.34592,-0.198642,0.289074
2.31549,-0.310598,0.190718
2.3885,-0.0850779,-0.0973718
2.31282,-0.310239,0.425463
2.35892,-0.199742,-0.0550871
2.38979,-0.0938952,-0.0417462
2.32357,-0.320355,-0.469113
2.37014,-0.209445,-0.370176
2.3349,-0.321917,-0.300013
2.39012,-0.0939079,0.0139021
2.32992,-0.321231,-0.0136696
2.35316,-0.207945,-0.254463
2.28582,-0.429845,-0.217117
2.35419,-0.208035,0.0549941
2.28774,-0.430206,0.0271004
2.35306,-0.207936,-0.165183
2.32223,-0.320171,-0.191369
2.38115,-0.0935558,0.0693518
2.38925,-0.0938739,-0.153242
2.28795,-0.430246,-0.13558
2.35084,-0.207739,0.137441
2.32011,-0.319878,0.0954179
2.35625,-0.208218,-0.110186
2.3149,-0.319159,-0.122466
2.34123,-0.20689,0.288587
2.31039,-0.318538,0.190393
2.30777,-0.318176,0.424745
2.36215,-0.208739,-0.0551802
2.38945,-0.102237,-0.0417462
2.312,-0.326989,-0.0679555
2.32632,-0.329013,-0.469897
2.34213,-0.215212,0
2.29408,-0.439695,-0.0271936
2.36152,-0.216994,-0.368946
2.39377,-0.102421,0.0139253
2.35638,-0.216521,-0.254891
2.28431,-0.437822,-0.217117
2.35743,-0.216617,0.0550871
2.28623,-0.438189,0.0271004
2.34835,-0.215783,-0.164904
2.31716,-0.327717,-0.191044
2.32451,-0.328757,0.0409782
2.38492,-0.102043,-0.152986
2.28644,-0.43823,-0.13558
2.3501,-0.215944,0.137441
2.32294,-0.328535,0.0955807
2.35551,-0.216441,-0.110186
2.31377,-0.327238,-0.122466
2.34049,-0.215061,0.288587
2.30926,-0.326601,0.190393
2.33928,-0.214949,0.629448
2.31054,-0.326781,0.425463
2.35743,-0.216617,-0.0550871
2.39309,-0.110344,-0.041816
2.35826,-0.224582,-0.663155
2.34141,-0.222977,0
2.28869,-0.446534,-0.027147
2.35686,-0.224449,-0.368331
2.3248,-0.336665,-0.299003
2.38543,-0.10999,0.0138789
2.35565,-0.224334,-0.254891
2.28284,-0.445394,-0.217117
2.28476,-0.445768,0.0271004
2.35159,-0.223947,-0.165183
2.31606,-0.335399,-0.191044
2.37247,-0.109393,0.0691191
2.31945,-0.335891,0.0409084
2.38058,-0.109767,-0.152731
2.29281,-0.447339,-0.136045
2.3454,-0.223357,0.137208
2.32183,-0.336236,0.0955807
2.3508,-0.223872,-0.11
2.31267,-0.334909,-0.122466
2.33976,-0.222821,0.288587
2.30027,-0.333114,0.189742
2.3755,-0.109533,-0.0968833
2.33086,-0.221973,0.627377
2.30555,-0.333877,0.424745
2.3567,-0.224434,-0.0550871
2.38071,-0.118102,-0.0416065
2.30972,-0.342718,-0.0679555
2.34061,-0.231149,0
2.35213,-0.232286,-0.367716
2.32753,-0.345361,-0.299508
2.38103,-0.118118,0.0138556
2.31858,-0.344032,-0.0136231
2.27737,-0.452584,-0.216746
2.28319,-0.453741,0.0271004
2.34683,-0.231762,-0.164904
2.31881,-0.344067,-0.191369
2.37208,-0.117674,0.0691191
2.38018,-0.118076,-0.152731
2.2834,-0.453783,-0.13558
2.3446,-0.231543,0.137208
2.31274,-0.343166,0.095255
2.35001,-0.232077,-0.11
2.31149,-0.34298,-0.122466
2.33502,-0.230597,0.288099
2.30304,-0.341726,0.190067
2.37511,-0.117824,-0.0968833
2.33391,-0.230487,0.628413
2.30437,-0.341923,0.424745
2.3559,-0.232659,-0.0550871
2.38829,-0.126419,-0.0417462
2.31511,-0.351368,-0.468328
2.33586,-0.238503,0
2.2856,-0.462102,-0.027147
2.35527,-0.240486,-0.368331
2.31853,-0.351886,-0.298498
2.38063,-0.126013,0.0138556
2.35012,-0.239959,-0.254463
2.35114,-0.240064,0.0549941
2.28168,-0.46131,0.0271004
2.34604,-0.239544,-0.164904
2.31372,-0.351156,-0.191044
2.37167,-0.125539,0.0691191
2.37978,-0.125968,-0.152731
2.28188,-0.461352,-0.13558
2.33985,-0.238911,0.136976
2.31159,-0.350833,0.095255
2.34128,-0.239057,-0.109627
2.31034,-0.350643,-0.122466
2.33819,-0.238742,0.288587
2.30189,-0.349362,0.190067
2.3747,-0.1257,-0.0968833
2.33314,-0.238226,0.628413
2.30322,-0.349563,0.424745
2.35511,-0.24047,-0.0550871
2.37985,-0.134304,-0.0416065
2.28397,-0.470078,-0.027147
2.35442,-0.248706,-0.368331
2.31729,-0.359977,-0.298498
2.38017,-0.134322,0.0138556
2.34531,-0.247744,-0.254034
2.34233,-0.247429,0.054808
2.28005,-0.469272,0.0271004
2.33726,-0.246893,-0.164346
2.32036,-0.360455,-0.191695
2.37122,-0.133817,0.0691191
2.31587,-0.359757,0.0409084
2.37534,-0.13405,-0.152475
2.28026,-0.469315,-0.13558
2.339,-0.247077,0.136976
2.3064,-0.358286,0.0950922
2.34043,-0.247228,-0.109627
2.32945,-0.246068,0.287612
2.30854,-0.358619,0.190718
2.37026,-0.133763,-0.0967205
2.29421,-0.356392,0.423311
2.35028,-0.248269,-0.0549941
2.37934,-0.143026,-0.0416065
2.29811,-0.36563,-0.0677228
2.33011,-0.254777,0
2.2744,-0.476805,-0.0270539
2.34563,-0.256474,-0.367101
2.31595,-0.368468,-0.298498
2.37567,-0.142805,0.0138324
2.34834,-0.25677,-0.254463
2.34538,-0.256447,0.054901
2.2744,-0.476805,0.0270539
2.30721,-0.367077,-0.190718
2.36672,-0.142268,0.0690027
2.37483,-0.142755,-0.152475
2.27462,-0.47685,-0.135348
2.33808,-0.255648,0.136976
2.30902,-0.367365,0.095255
2.34348,-0.256239,-0.109813
2.32853,-0.254604,0.287612
2.30066,-0.366035,0.424745
2.34936,-0.256882,-0.0549941
2.37484,-0.151077,-0.0415367
2.3408,-0.264217,-0.366486
2.31073,-0.375913,-0.297993
2.37915,-0.151351,0.0138556
2.34348,-0.26452,-0.254034
2.26693,-0.483506,-0.216374
2.3405,-0.264184,0.054808
2.26881,-0.483907,0.0270073
2.30591,-0.375129,-0.190718
2.36222,-0.150274,0.0688864
2.30929,-0.375677,0.0408386
2.27684,-0.48562,-0.13558
2.34114,-0.264256,0.137208
2.30378,-0.374781,0.0950922
2.3386,-0.263969,-0.109627
2.29859,-0.373937,-0.122047
2.32763,-0.262731,0.287612
2.29017,-0.372568,0.189416
2.32663,-0.262618,0.627377
2.29548,-0.373432,0.424028
2.37033,-0.158684,-0.0414669
2.29557,-0.381264,-0.0677228
2.32832,-0.270632,0
2.2711,-0.492275,-0.0270539
2.34383,-0.272435,-0.367101
2.30947,-0.383573,-0.297993
2.37065,-0.158705,0.0138091
2.33469,-0.271371,-0.253177
2.26532,-0.491021,-0.216374
2.33564,-0.271482,0.0547149
2.2711,-0.492275,0.0270539
2.33058,-0.270894,-0.164067
2.30859,-0.383427,-0.191044
2.36171,-0.158107,0.0688864
2.30803,-0.383333,0.0408386
2.36584,-0.158383,-0.151963
2.27132,-0.492321,-0.135348
2.33232,-0.271096,0.136743
2.30647,-0.383074,0.095255
2.33771,-0.271723,-0.109627
2.32674,-0.270448,0.287612
2.29679,-0.381467,0.190067
2.29035,-0.380397,0.423311
2.33564,-0.271482,-0.0547149
2.36974,-0.167371,-0.0414669
2.30469,-0.391465,-0.467544
2.33129,-0.27964,0
2.34282,-0.281023,-0.367101
2.31196,-0.3927,-0.298498
2.36607,-0.167111,0.0137859
2.30692,-0.391843,-0.0135999
2.33368,-0.279926,-0.253177
2.3386,-0.280517,0.054808
2.26928,-0.500595,0.0270539
2.33353,-0.279909,-0.164346
2.30324,-0.391218,-0.190718
2.3651,-0.167044,0.0690027
2.36126,-0.166772,-0.151707
2.2734,-0.501503,-0.13558
2.33527,-0.280118,0.136976
2.29323,-0.389517,0.0947666
2.3367,-0.280289,-0.109627
2.29986,-0.390644,-0.122257
2.32968,-0.279447,0.288099
2.29145,-0.389215,0.189742
2.36016,-0.166694,-0.0963948
2.28894,-0.388789,0.423311
2.36914,-0.175641,-0.0414669
2.28884,-0.396998,-0.0676064
2.27143,-0.509389,-0.0271004
2.3379,-0.288715,-0.366486
2.30276,-0.399412,-0.297488
2.36946,-0.175665,0.0138091
2.33364,-0.288188,0.0547149
2.26362,-0.507639,0.0270073
2.30579,-0.399937,-0.191044
2.36052,-0.175003,0.0688864
2.30128,-0.399156,0.0407688
2.36863,-0.175604,-0.152219
2.26774,-0.508562,-0.135348
2.32636,-0.287289,0.13651
2.29579,-0.398202,0.0949294
2.32381,-0.286975,-0.109069
2.31687,-0.286118,0.286637
2.28615,-0.39653,0.189416
2.28757,-0.396777,0.423311
2.36459,-0.182775,-0.0413971
2.28758,-0.404186,-0.0676064
2.29818,-0.406059,-0.466759
2.31748,-0.293587,0
2.26201,-0.514747,-0.0270073
2.33698,-0.296059,-0.366486
2.30149,-0.406644,-0.297488
2.36491,-0.1828,0.0137859
2.32782,-0.294898,-0.252749
2.33272,-0.295518,0.0547149
2.26591,-0.515635,0.0270539
2.29667,-0.405791,-0.190393
2.35597,-0.182109,0.06877
2.3601,-0.182429,-0.151707
2.26613,-0.515684,-0.135348
2.3294,-0.295098,0.136743
2.29846,-0.406108,0.0950922
2.32686,-0.294776,-0.109255
2.29328,-0.405193,-0.122047
2.3199,-0.293894,0.287124
2.28096,-0.403017,0.189091
2.28631,-0.403962,0.423311
2.35988,-0.19153,-0.0413273
2.28602,-0.412967,-0.0676064
2.31633,-0.302484,0
2.26002,-0.523429,-0.0270073
2.33191,-0.304518,-0.365871
2.29601,-0.414773,-0.296983
2.3602,-0.191556,0.0137626
2.33062,-0.304349,-0.253177
2.33157,-0.304473,0.0547149
2.25612,-0.522527,0.0269608
2.29509,-0.414607,-0.190393
2.35526,-0.191154,0.06877
2.29844,-0.415212,0.0407688
2.35541,-0.191167,-0.151451
2.26024,-0.52348,-0.135115
2.32825,-0.30404,0.136743
2.28902,-0.41351,0.0947666
2.32175,-0.303191,-0.109069
2.28778,-0.413286,-0.121838
2.31875,-0.3028,0.287124
2.3543,-0.191077,-0.096232
2.28087,-0.412038,0.422593
2.33553,-0.304991,-0.054808
2.3592,-0.199766,-0.0413273
2.31526,-0.310567,0
2.25429,-0.530399,-0.0269608
2.33475,-0.313181,-0.366486
2.29845,-0.423504,-0.297488
2.3635,-0.200131,0.0137859
2.29729,-0.42329,-0.0135766
2.32166,-0.311425,-0.252321
2.26207,-0.532231,0.0270539
2.32544,-0.311933,-0.164067
2.29363,-0.422616,-0.190393
2.35059,-0.199037,0.0686537
2.35473,-0.199387,-0.151451
2.25451,-0.530452,-0.134883
2.32322,-0.311635,0.13651
2.29542,-0.422946,0.0950922
2.31672,-0.310762,-0.108883
2.29025,-0.421993,-0.122047
2.31768,-0.310892,0.287124
2.27795,-0.419726,0.189091
2.34964,-0.198956,-0.0960692
2.27555,-0.419284,0.421876
2.32653,-0.312078,-0.0546219
2.35856,-0.207177,-0.0413273
2.28323,-0.428119,-0.0676064
2.31428,-0.317839,0
2.26039,-0.539335,-0.0270539
2.32984,-0.319977,-0.365871
2.29321,-0.429991,-0.296983
2.35888,-0.207205,0.0137626
2.29595,-0.430505,-0.0135766
2.32461,-0.319258,-0.252749
2.32554,-0.319386,0.0546219
2.25261,-0.537478,0.0269608
2.3205,-0.318694,-0.163788
2.29229,-0.429819,-0.190393
2.34995,-0.206421,0.0686537
2.29171,-0.429709,0.040699
2.35011,-0.206435,-0.151196
2.25672,-0.538459,-0.135115
2.31432,-0.317845,0.136045
2.2823,-0.427945,0.0946037
2.31573,-0.318039,-0.108883
2.28499,-0.42845,-0.121838
2.32063,-0.318711,0.287612
2.27662,-0.42688,0.189091
2.349,-0.206337,-0.0960692
2.28196,-0.427881,0.423311
2.3295,-0.31993,-0.0547149
2.35384,-0.215044,-0.0412575
2.27779,-0.435336,-0.06749
2.31315,-0.325916,0
2.25849,-0.547222,-0.0270539
2.33262,-0.328659,-0.366486
2.29559,-0.438738,-0.297488
2.35814,-0.215438,0.0137626
2.29443,-0.438516,-0.0135766
2.24887,-0.54489,-0.216002
2.32441,-0.327501,0.0546219
2.25072,-0.545338,0.0269608
2.31542,-0.326235,-0.163509
2.29078,-0.437818,-0.190393
2.34922,-0.214622,0.0686537
2.35335,-0.215,-0.151451
2.25871,-0.547273,-0.135348
2.3211,-0.327036,0.13651
2.28864,-0.43741,0.0949294
2.31856,-0.326678,-0.109069
2.27956,-0.435673,-0.121629
2.31557,-0.326256,0.287124
2.27512,-0.434825,0.189091
2.34428,-0.214172,-0.0959064
2.27658,-0.435105,0.422593
2.32837,-0.328059,-0.0547149
2.35705,-0.223637,-0.0413273
2.27626,-0.443284,-0.06749
2.25269,-0.554147,-0.0270073
2.32364,-0.335669,-0.365256
2.29405,-0.446749,-0.297488
2.35737,-0.223668,0.0137626
2.31445,-0.334342,-0.251892
2.31929,-0.335041,0.0545288
2.25269,-0.554147,0.0270073
2.28141,-0.444288,-0.189742
2.34447,-0.222444,0.0685373
2.34861,-0.222836,-0.151196
2.25291,-0.5542,-0.135115
2.31204,-0.333994,0.136045
2.2871,-0.445396,0.0949294
2.32136,-0.33534,-0.109255
2.27802,-0.443628,-0.121629
2.31049,-0.333769,0.286637
2.27358,-0.442763,0.189091
2.27505,-0.443049,0.422593
2.32325,-0.335613,-0.0546219
2.3522,-0.232293,-0.0412575
2.27454,-0.452021,-0.06749
2.30279,-0.341689,0
2.24666,-0.561822,-0.0269608
2.31842,-0.344009,-0.364642
2.28842,-0.45478,-0.296983
2.34854,-0.231931,0.0137161
2.32102,-0.344394,-0.252749
2.25054,-0.562792,0.0270073
2.28751,-0.454599,-0.190393
2.3436,-0.231444,0.0685373
2.28692,-0.454482,0.040699
2.25463,-0.563816,-0.135348
2.28537,-0.454175,0.0949294
2.32006,-0.344251,-0.109255
2.28022,-0.45315,-0.121838
2.30526,-0.342056,0.286149
2.26405,-0.449936,0.18844
2.27333,-0.451782,0.422593
2.32194,-0.344531,-0.0546219
2.34748,-0.239276,-0.0411877
2.27703,-0.459956,-0.0676064
2.31357,-0.35072,0
2.24876,-0.56986,-0.0270073
2.31342,-0.350698,-0.364027
2.28698,-0.461967,-0.296983
2.3478,-0.239308,0.0137161
2.30813,-0.349895,-0.251464
2.24101,-0.567895,0.0269142
2.30793,-0.349866,-0.16323
2.27825,-0.460204,-0.189742
2.34286,-0.238806,0.0685373
2.28156,-0.460873,0.0406292
2.33906,-0.238418,-0.150684
2.24511,-0.568934,-0.134883
2.30176,-0.34893,0.13558
2.28394,-0.461352,0.0949294
2.31501,-0.350939,-0.109069
2.27487,-0.45952,-0.121629
2.3081,-0.349891,0.286637
2.26653,-0.457836,0.188766
2.26419,-0.457363,0.421158
2.31294,-0.350625,-0.0544357
2.34261,-0.247458,-0.0411179
2.26749,-0.466687,-0.0673737
2.30436,-0.35797,0
2.25053,-0.579095,-0.0270539
2.31603,-0.359782,-0.364642
2.28527,-0.470347,-0.296983
2.35088,-0.248332,0.0137394
2.31076,-0.358963,-0.251892
2.31164,-0.3591,0.0544357
2.24666,-0.578098,0.0270073
2.30269,-0.35771,-0.162951
2.27655,-0.468551,-0.189742
2.338,-0.246971,0.0684209
2.24688,-0.578154,-0.135115
2.3123,-0.359203,0.136278
2.27049,-0.467303,0.0944409
2.30187,-0.357582,-0.108511
2.27317,-0.467855,-0.121629
2.3068,-0.358348,0.286637
2.26484,-0.46614,0.188766
2.2625,-0.465659,0.421158
2.31559,-0.359714,-0.0545288
2.34571,-0.256068,-0.0411877
2.26585,-0.474599,-0.0673737
2.29915,-0.365383,0
2.2485,-0.586947,-0.0270539
2.31476,-0.367864,-0.364642
2.28362,-0.478321,-0.296983
2.30556,-0.366403,-0.251464
2.24076,-0.584926,0.0269608
2.2788,-0.477312,-0.190067
2.33315,-0.254697,0.0683046
2.34126,-0.255583,-0.15094
2.24098,-0.584985,-0.134883
2.31103,-0.367272,0.136278
2.26884,-0.475226,0.0944409
2.3006,-0.365615,-0.108511
2.27152,-0.475787,-0.121629
2.30161,-0.365775,0.286149
2.25929,-0.473226,0.18844
2.3322,-0.254593,-0.0955807
2.26086,-0.473553,0.421158
2.34484,-0.263845,-0.0411877
2.26426,-0.48211,-0.0673737
2.29397,-0.372365,0
2.2388,-0.592354,-0.0269608
2.30572,-0.374271,-0.363412
2.28202,-0.485891,-0.296983
2.34516,-0.263881,0.0137161
2.30434,-0.374046,-0.251464
2.30914,-0.374827,0.0544357
2.2388,-0.592354,0.0269608
2.27331,-0.484036,-0.189742
2.33229,-0.262432,0.0683046
2.27661,-0.484739,0.0406292
2.33643,-0.262899,-0.150684
2.24289,-0.593435,-0.135115
2.30586,-0.374294,0.136045
2.27507,-0.484411,0.0947666
2.30332,-0.373882,-0.108697
2.26993,-0.483317,-0.121629
2.30039,-0.373406,0.286149
2.26161,-0.481545,0.188766
2.26312,-0.481867,0.421876
2.30914,-0.374827,-0.0544357
2.33994,-0.271568,-0.0411179
2.26647,-0.490857,-0.06749
2.29661,-0.381025,0
2.23672,-0.600165,-0.0269608
2.3083,-0.382964,-0.364027
2.27643,-0.493014,-0.296478
2.34025,-0.271604,0.0136929
2.30302,-0.382088,-0.251464
2.24059,-0.601202,0.0270073
2.30282,-0.382056,-0.16323
2.26771,-0.491125,-0.189416
2.33136,-0.270572,0.0683046
2.23695,-0.600225,-0.134883
2.26555,-0.490658,0.0944409
2.302,-0.38192,-0.108697
2.26433,-0.490392,-0.121419
2.29516,-0.380784,0.285662
2.25602,-0.488593,0.18844
2.31177,-0.383539,-0.0545288
2.33098,-0.279191,-0.0409782
2.26076,-0.4983,-0.0673737
2.29125,-0.38877,0
2.23065,-0.607308,-0.0269142
2.30688,-0.391422,-0.364027
2.27461,-0.501354,-0.296478
2.33527,-0.279704,0.0136696
2.29768,-0.389861,-0.251036
2.3064,-0.391341,0.0544357
2.23837,-0.60941,0.0270073
2.29747,-0.389826,-0.162951
2.26979,-0.500291,-0.189742
2.33035,-0.279115,0.0683046
2.27308,-0.501018,0.0406292
2.23088,-0.607371,-0.13465
2.29525,-0.389449,0.13558
2.29665,-0.389686,-0.108511
2.26251,-0.498688,-0.121419
2.29374,-0.389193,0.285662
2.25811,-0.497717,0.188766
2.30246,-0.390672,-0.0543427
2.33396,-0.287815,-0.0410481
2.28988,-0.396766,0
2.23237,-0.616155,-0.0269608
2.30161,-0.398798,-0.363412
2.26897,-0.508423,-0.295973
2.33031,-0.287365,0.0136464
2.2963,-0.397879,-0.251036
2.30108,-0.398707,0.0543427
2.22852,-0.615091,0.0269142
2.26414,-0.507339,-0.189416
2.32539,-0.286758,0.0681882
2.27132,-0.50895,0.0406292
2.22875,-0.615155,-0.13465
2.29388,-0.397458,0.13558
2.26199,-0.506857,0.0944409
2.29527,-0.3977,-0.108511
2.26076,-0.506583,-0.121419
2.29237,-0.397198,0.285662
2.25247,-0.504724,0.18844
2.30108,-0.398707,-0.0543427
2.333,-0.295553,-0.0410481
2.26121,-0.514564,-0.06749
2.28855,-0.404357,0
2.27114,-0.516825,-0.296478
2.29975,-0.406335,0.0543427
2.22646,-0.622478,0.0269142
2.26244,-0.514845,-0.189416
2.3284,-0.294971,0.0683046
2.32461,-0.294491,-0.150172
2.22669,-0.622542,-0.13465
2.29255,-0.405063,0.13558
2.26419,-0.515242,0.0946037
2.29001,-0.404615,-0.108324
2.25907,-0.514077,-0.121419
2.29104,-0.404797,0.285662
2.25467,-0.513075,0.188766
2.30368,-0.407031,-0.0544357
2.33195,-0.303695,-0.0410481
2.2555,-0.521554,-0.0673737
2.22043,-0.629155,-0.0268676
2.29495,-0.413753,-0.362797
2.26933,-0.52475,-0.296478
2.3283,-0.30322,0.0136464
2.29354,-0.4135,-0.251036
2.22428,-0.630246,0.0269142
2.26063,-0.522739,-0.189416
2.31942,-0.302064,0.0680718
2.31961,-0.302088,-0.149916
2.22451,-0.630311,-0.13465
2.29505,-0.413771,0.135813
2.25848,-0.522242,0.0944409
2.28858,-0.412606,-0.108324
2.26115,-0.522859,-0.121629
2.28571,-0.412088,0.285174
2.24898,-0.520044,0.18844
2.32691,-0.311303,-0.0409782
2.24978,-0.528509,-0.0672573
2.28567,-0.420324,0
2.22206,-0.638006,-0.0269142
2.29349,-0.421762,-0.362797
2.26362,-0.531761,-0.295973
2.32723,-0.311345,0.0136464
2.28817,-0.420784,-0.250607
2.29685,-0.42238,0.0543427
2.22206,-0.638006,0.0269142
2.28403,-0.420022,-0.162393
2.25491,-0.529715,-0.189091
2.31835,-0.310158,0.0680718
2.31854,-0.310184,-0.149916
2.22997,-0.640276,-0.135115
2.28966,-0.421058,0.13558
2.25665,-0.530123,0.0944409
2.28713,-0.420592,-0.108324
2.28426,-0.420064,0.285174
2.24715,-0.527892,0.18844
2.31789,-0.318335,-0.0408386
2.25181,-0.537287,-0.0673737
2.28419,-0.4283,0
2.21982,-0.645759,-0.0269142
2.28812,-0.429037,-0.362182
2.26175,-0.539659,-0.295973
2.32613,-0.319467,0.0136464
2.2275,-0.647993,0.0270073
2.28647,-0.428728,-0.162672
2.25305,-0.537583,-0.189091
2.31726,-0.318249,0.0680718
2.21622,-0.64471,-0.134417
2.28425,-0.428312,0.135348
2.25478,-0.537997,0.0944409
2.28172,-0.427836,-0.108138
2.25356,-0.537705,-0.121419
2.28668,-0.428766,0.285662
2.24529,-0.535732,0.18844
2.29144,-0.429658,-0.0542496
2.32462,-0.327946,-0.0409782
2.24594,-0.544595,-0.0672573
2.28261,-0.436669,0
2.22128,-0.655022,-0.0269608
2.29041,-0.438163,-0.362797
2.2559,-0.54701,-0.295468
2.31702,-0.326873,0.0135999
2.28984,-0.438054,0.0542496
2.21361,-0.652759,0.0268676
2.28097,-0.436355,-0.162393
2.25494,-0.546777,-0.189416
2.31608,-0.32674,0.0680718
2.24266,-0.5438,0.0402802
2.2215,-0.655087,-0.134883
2.28267,-0.436681,0.135348
2.25279,-0.546257,0.0944409
2.28014,-0.436196,-0.108138
2.24769,-0.54502,-0.12121
2.27729,-0.435652,0.284687
2.24331,-0.543958,0.18844
2.31909,-0.327166,-0.0954179
2.28984,-0.438054,-0.0542496
2.31962,-0.334676,-0.0409084
2.24422,-0.551648,-0.0672573
2.27337,-0.44231,0
2.21154,-0.65971,-0.0268676
2.28515,-0.444601,-0.362182
2.25802,-0.555041,-0.295973
2.31598,-0.33415,0.0135999
2.27982,-0.443564,-0.250179
2.28846,-0.445246,0.0542496
2.20771,-0.658567,0.0268211
2.25321,-0.553858,-0.189416
2.31504,-0.334015,0.0680718
2.24482,-0.551797,0.04035
2.31128,-0.333472,-0.149661
2.21943,-0.662063,-0.134883
2.2852,-0.444613,0.13558
2.24719,-0.552378,0.0942781
2.27201,-0.442046,0.284199
2.24159,-0.551003,0.18844
2.3141,-0.333879,-0.095255
2.29238,-0.446009,-0.0543427
2.31838,-0.343176,-0.0409084
2.24218,-0.559869,-0.0672573
2.27174,-0.45064,0
2.21294,-0.668969,-0.0269142
2.25212,-0.562352,-0.295468
2.31474,-0.342637,0.0135999
2.27817,-0.451917,-0.250179
2.28681,-0.45363,0.0542496
2.20911,-0.667811,0.0268676
2.2473,-0.561147,-0.189091
2.30589,-0.341326,0.0678391
2.24667,-0.56099,0.0404198
2.31399,-0.342525,-0.149916
2.21317,-0.669038,-0.13465
2.27964,-0.452208,0.135348
2.24902,-0.561579,0.0944409
2.27711,-0.451707,-0.108138
2.24393,-0.560307,-0.12121
2.27038,-0.450371,0.284199
2.23956,-0.559215,0.18844
2.30891,-0.341773,-0.0950922
2.32118,-0.351461,-0.0409782
2.24031,-0.567302,-0.0672573
2.27415,-0.458962,0
2.21453,-0.677474,-0.0269608
2.28199,-0.460544,-0.362182
2.25025,-0.569818,-0.295468
2.30963,-0.349712,0.0135766
2.21453,-0.677474,0.0269608
2.24156,-0.567617,-0.188766
2.30079,-0.348373,0.0677228
2.23704,-0.566474,0.0402802
2.21094,-0.676373,-0.13465
2.28205,-0.460556,0.13558
2.24715,-0.569034,0.0944409
2.2756,-0.459255,-0.108138
2.24593,-0.568725,-0.121419
2.23769,-0.566639,0.18844
2.30776,-0.349428,-0.0950922
2.30809,-0.357723,-0.0407688
2.23832,-0.575118,-0.0672573
2.26862,-0.466092,0
2.21216,-0.6852,-0.0269608
2.27649,-0.467711,-0.361567
2.25209,-0.578656,-0.295973
2.31235,-0.358384,0.0135999
2.21034,-0.684636,-0.216002
2.20451,-0.682833,0.0268676
2.24342,-0.576431,-0.189091
2.30351,-0.357014,0.0678391
2.23892,-0.575274,0.04035
2.30371,-0.357045,-0.149405
2.2726,-0.466911,0.135115
2.24128,-0.57588,0.0942781
2.27007,-0.466392,-0.107952
2.24393,-0.576561,-0.121419
2.22798,-0.572462,0.187789
2.31071,-0.366807,-0.0408386
2.23232,-0.582309,-0.067141
2.26689,-0.474404,0
2.20963,-0.693303,-0.0269608
2.27476,-0.476052,-0.361567
2.24611,-0.585905,-0.295468
2.30707,-0.36623,0.0135766
2.20581,-0.692105,0.0269142
2.2413,-0.584649,-0.189091
2.30614,-0.366081,0.0679555
2.24067,-0.584486,0.0404198
2.30239,-0.365486,-0.149405
2.20223,-0.690982,-0.134417
2.27087,-0.475238,0.135115
2.23529,-0.583082,0.0941152
2.23794,-0.583774,-0.12121
2.26942,-0.474934,0.284687
2.23358,-0.582637,0.18844
2.3052,-0.365933,-0.0950922
2.28193,-0.477552,-0.0542496
2.30948,-0.374468,-0.0408386
2.23038,-0.589709,-0.067141
2.26531,-0.481919,0
2.20732,-0.700627,-0.0269608
2.24416,-0.59335,-0.295468
2.30585,-0.373879,0.0135766
2.27643,-0.484285,0.0541566
2.19588,-0.696996,0.0268211
2.2432,-0.593098,-0.189416
2.30096,-0.373087,0.0678391
2.23485,-0.590891,0.04035
2.26929,-0.482766,0.135115
2.2372,-0.591513,0.0942781
2.23599,-0.591192,-0.12121
2.26784,-0.482457,0.284687
2.22393,-0.588002,0.187789
2.30003,-0.372935,-0.0949294
2.28034,-0.485117,-0.0542496
2.30816,-0.382527,-0.0408386
2.22831,-0.59749,-0.067141
2.24207,-0.60118,-0.295468
2.19343,-0.704657,0.0268211
2.23726,-0.599892,-0.189091
2.2957,-0.380463,0.0677228
2.23664,-0.599724,0.0404198
2.29591,-0.380497,-0.149149
2.19748,-0.705956,-0.134417
2.27149,-0.491528,0.135348
2.23513,-0.599318,0.0942781
2.23006,-0.597959,-0.121001
2.26226,-0.489531,0.284199
2.22571,-0.596794,0.188115
2.29477,-0.380308,-0.0947666
2.3028,-0.390316,-0.0407688
2.2261,-0.605654,-0.067141
2.20225,-0.716404,-0.0269608
2.23985,-0.609394,-0.295468
2.29917,-0.389701,0.0135534
2.26821,-0.499528,-0.250179
2.19084,-0.712692,0.0268211
2.23505,-0.608088,-0.189091
2.29429,-0.388874,0.0677228
2.23057,-0.606868,0.04035
2.19867,-0.71524,-0.13465
2.26967,-0.499851,0.135348
2.26715,-0.499296,-0.108138
2.22785,-0.606128,-0.121001
2.26045,-0.497819,0.284199
2.22351,-0.604948,0.188115
2.30142,-0.398352,-0.0407688
2.22398,-0.61342,-0.067141
2.26005,-0.506009,0
2.19973,-0.724087,-0.0269608
2.26404,-0.506902,-0.360952
2.23389,-0.616154,-0.294963
2.2403,-0.617924,-0.0135069
2.19593,-0.722836,0.0269142
2.25844,-0.505648,-0.161835
2.23291,-0.615886,-0.189091
2.28898,-0.396199,0.0676064
2.23229,-0.615714,0.0404198
2.19995,-0.724159,-0.134883
2.26402,-0.506898,0.135115
2.22307,-0.613172,0.0939524
2.2615,-0.506334,-0.107952
2.22957,-0.614963,-0.12121
2.2587,-0.505707,0.284199
2.22523,-0.613766,0.18844
2.29199,-0.396719,-0.0947666
