3.06515,0.522835,-0.126681
3.04508,0.367418,-0.0713713
3.07289,0.513674,-0.0543817
3.00379,0.204251,-0.0876207
3.04314,0.356948,0
2.98326,0.0567605,-0.034737
3.01299,0.204877,-0.017552
3.03834,0.356386,0.0711852
2.98326,0.0567605,0.034737
3.01499,0.205012,-0.246697
3.00859,0.204578,0.0526365
3.00656,0.204439,0.122773
3.04778,0.357492,-0.142944
3.00891,0.204599,-0.158055
3.06292,0.512008,-0.126518
3.03834,0.356386,-0.0711852
3.06686,0.501118,-0.0542421
3.00053,0.192984,-0.0875043
3.04443,0.345793,0
2.97945,0.0457652,-0.0346904
3.00973,0.193576,-0.0175287
2.97073,0.0456314,-0.277345
2.97945,0.0457652,0.0346904
3.04494,0.345851,-0.214292
3.00134,0.193037,0.0524968
3.04113,0.345418,-0.142571
3.00964,0.193571,-0.158055
3.06478,0.500779,-0.126518
3.03168,0.344345,-0.0709991
3.06859,0.490409,-0.0542421
3.00118,0.182509,-0.0875043
3.03369,0.33385,0
2.97559,0.0353164,-0.0346439
3.05715,0.488582,0.0179937
3.01438,0.183311,-0.017552
2.97486,0.0353078,-0.277717
3.03684,0.334197,0.0710922
2.96759,0.0352215,0.0345507
3.03819,0.334346,-0.213734
3.002,0.182558,0.0524968
3.03252,0.333722,0.177673
3.03437,0.333925,-0.142199
2.99834,0.182336,-0.157427
3.05862,0.488816,-0.126193
3.03684,0.334197,-0.0710922
3.06633,0.47908,-0.0541723
2.99781,0.171805,-0.087388
3.03085,0.322837,0
2.97169,0.0248981,-0.0345973
3.05489,0.477292,0.0179704
3.01101,0.172561,-0.0175287
2.97496,0.0249254,-0.277717
3.03799,0.323597,0.0710922
2.97569,0.0249316,0.0346439
3.03538,0.323318,-0.213455
3.00108,0.171992,-0.245395
3.00661,0.172309,0.0525666
2.96288,0.0248242,-0.172557
3.02573,0.322291,0.177208
3.03552,0.323334,-0.142199
2.99896,0.17187,-0.157427
3.0603,0.478138,-0.126193
3.03003,0.322749,-0.0709061
3.0679,0.468908,-0.0541723
2.99437,0.161646,-0.0872716
3.03589,0.313194,0
2.97176,0.0150426,-0.0345973
3.03425,0.313025,-0.328574
2.97105,0.015039,-0.277345
3.03904,0.31352,0.0710922
2.97576,0.0150628,0.0346439
3.00561,0.162253,-0.245721
2.99518,0.16169,0.0523572
2.95895,0.0149777,-0.172324
3.03075,0.312664,0.17744
2.99316,0.161581,0.122122
2.99552,0.161708,-0.157217
3.05792,0.467383,-0.12603
3.03109,0.312699,-0.0709061
3.05765,0.456424,-0.0539628
2.99891,0.151394,-0.087388
3.03298,0.302197,0
2.97179,0.00466832,-0.0345973
2.99613,0.151254,-0.0174357
3.02345,0.301248,-0.327289
2.97108,0.00466719,-0.277345
3.03216,0.302116,0.0709061
2.97579,0.0046746,0.0346439
2.99573,0.151233,0.0523572
3.0637,0.457327,-0.198524
2.9937,0.151131,0.122122
3.0297,0.30187,-0.141827
2.99208,0.151049,-0.157008
3.05163,0.455525,-0.125704
3.02022,0.300926,-0.0706269
3.05915,0.446282,-0.0539628
2.98741,0.140884,-0.0870389
3.03397,0.292139,0
2.96779,-0.00517894,-0.0345507
3.00061,0.141506,-0.017459
3.02839,0.291602,-0.327717
2.96311,-0.00517077,-0.276602
3.02121,0.29091,0.0706269
2.97179,-0.00518592,0.0345973
3.00021,0.141487,0.052427
3.06125,0.446589,-0.198268
3.0267,0.291439,-0.141641
2.99256,0.141127,-0.157008
3.05312,0.445403,-0.125704
3.02121,0.29091,-0.0706269
3.05673,0.435037,-0.053893
2.98389,0.13028,-0.0869225
3.027,0.280807,0
2.97176,-0.0155602,-0.0345973
2.99694,0.130849,-0.381835
2.99709,0.130856,-0.0174357
3.02147,0.280294,-0.32686
2.96308,-0.0155148,-0.276602
3.0222,0.280361,0.0706269
2.96376,-0.0155183,0.0345042
3.0236,0.280491,-0.212339
3.04798,0.433792,0.0895988
2.99669,0.130838,0.0523572
3.05884,0.435337,-0.198013
3.02188,0.280332,0.176743
2.98668,0.130401,0.121796
3.0277,0.280872,-0.141641
2.98506,0.13033,-0.156589
3.05466,0.434742,-0.125704
3.01822,0.279992,-0.0705338
3.0583,0.423831,-0.053893
2.98435,0.119343,-0.0869225
3.02403,0.269356,0
2.95968,-0.0263447,-0.0344576
2.99755,0.119871,-0.0174357
3.02644,0.269571,-0.327289
2.95902,-0.0263388,-0.27623
3.01923,0.268928,0.0705338
2.96368,-0.0263803,0.0345042
3.02461,0.269408,-0.212339
2.99563,0.119794,-0.244744
2.99315,0.119695,0.0522874
3.06041,0.424124,-0.198013
2.95488,-0.0263019,-0.172092
3.01494,0.268546,0.176278
2.99113,0.119614,0.121959
3.02871,0.269773,-0.141641
2.98551,0.119389,-0.156589
3.04831,0.422447,-0.125378
3.01524,0.268574,-0.0704408
3.05184,0.412083,-0.0537534
2.98475,0.108925,-0.0869225
3.02495,0.258799,0
2.95957,-0.0366751,-0.0344576
2.9859,0.108968,-0.38032
2.99396,0.109261,-0.0174125
3.0234,0.258667,-0.32686
2.95891,-0.0366669,-0.27623
3.02015,0.258388,0.0705338
2.96357,-0.0367247,0.0345042
3.02156,0.258509,-0.21206
2.99603,0.109337,-0.244744
2.98556,0.108955,0.0521478
3.05001,0.411836,-0.197245
2.95077,-0.0365661,-0.171859
3.01983,0.258361,0.17651
2.99153,0.109173,0.121959
2.98591,0.108968,-0.156589
3.04581,0.41127,-0.125216
3.01616,0.258047,-0.0704408
3.04129,0.400394,-0.053544
2.98509,0.0990262,-0.0869225
3.02579,0.248766,0
2.96343,-0.0465528,-0.0345042
2.98625,0.0990646,-0.38032
2.9943,0.0993317,-0.0174125
3.01632,0.247987,-0.326003
2.95081,-0.0463545,-0.275486
3.02099,0.248371,0.0705338
2.96343,-0.0465528,0.0345042
3.01444,0.247833,-0.211502
2.99239,0.0992684,-0.244419
2.9899,0.0991857,0.0522176
3.05136,0.401719,-0.197245
2.98388,0.0989861,0.121633
3.0265,0.248824,-0.141455
2.98626,0.0990648,-0.156589
3.04716,0.401166,-0.125216
3.00903,0.247388,-0.0702547
3.0506,0.390791,-0.0536836
2.97743,0.0883677,-0.0866898
3.01867,0.237574,0
2.96325,-0.0568976,-0.0345042
2.98658,0.0886393,-0.38032
2.99063,0.0887596,-0.0173892
3.01716,0.237456,-0.326003
2.94664,-0.0565787,-0.275114
3.01785,0.23751,0.0704408
2.96325,-0.0568976,0.0345042
3.01927,0.237621,-0.211781
2.99272,0.0888216,-0.244419
2.98623,0.0886289,0.0521478
3.04482,0.39005,-0.196733
3.00958,0.236859,0.175812
2.98421,0.088569,0.121633
3.01938,0.23763,-0.141082
2.98658,0.0886395,-0.156589
3.01991,0.237672,0.371945
2.98077,0.0884668,0.243443
3.04854,0.390526,-0.125216
3.00988,0.236882,-0.0702547
3.04805,0.379114,-0.0536138
2.97373,0.077351,-0.0865734
3.01553,0.22621,0
2.95903,-0.0676661,-0.0344576
2.98292,0.0775898,-0.379815
3.03655,0.377685,0.0177845
2.99094,0.0777985,-0.0173892
3.01405,0.226099,-0.325575
2.94642,-0.0673777,-0.275114
3.01471,0.226149,0.0703477
2.95103,-0.0674832,0.0343645
3.01216,0.225957,-0.211223
2.98653,0.0776839,0.0521478
3.05019,0.379381,-0.196989
2.98052,0.0775274,0.121471
3.01625,0.226264,-0.140896
3.04202,0.378364,-0.12489
3.01072,0.225849,-0.0702547
3.04532,0.368525,-0.053544
3.01227,0.215923,0
2.95479,-0.0773729,-0.034411
2.98316,0.0676982,-0.379815
2.99118,0.0678803,-0.0173892
2.94618,-0.0771474,-0.275114
3.01146,0.215865,0.0702547
2.95479,-0.0773729,0.034411
3.01687,0.216253,-0.211502
2.98131,0.0676564,-0.243443
2.99077,0.0678711,0.0522176
3.04747,0.368785,-0.196733
2.94201,-0.0770382,-0.171394
2.98476,0.0677345,0.121633
2.97914,0.0676072,-0.156171
3.03929,0.367795,-0.124727
3.00747,0.215579,-0.0701616
3.04261,0.357425,-0.0534742
2.9702,0.0570308,-0.0864571
2.97649,0.0571518,-0.595412
3.01301,0.205406,0
2.9545,-0.0876873,-0.034411
2.97544,0.0571315,-0.378805
2.9834,0.0572844,-0.0173428
3.01155,0.205307,-0.325147
2.94987,-0.08755,-0.275486
3.0082,0.205079,0.0701616
2.9505,-0.0875686,0.0343645
3.00965,0.205177,-0.210944
2.98153,0.0572485,-0.243443
2.979,0.0571998,0.0520082
3.03684,0.356747,-0.195966
2.94172,-0.087308,-0.171394
2.98098,0.0572379,0.121471
3.01772,0.205727,-0.140896
2.97137,0.0570535,-0.155752
3.01035,0.205225,0.370483
3.03261,0.35625,-0.124401
3.00421,0.204807,-0.0700686
3.02795,0.344992,-0.0531949
2.97837,0.0467888,-0.0866898
2.96491,0.0465773,-0.593059
3.00971,0.19463,0
2.95018,-0.0978667,-0.0343645
2.97165,0.0466832,-0.3783
2.98358,0.0468706,-0.0173428
3.00034,0.194024,-0.323862
2.94159,-0.0975817,-0.274743
3.01289,0.194836,0.0702547
2.95817,-0.0981319,0.0344576
3.01433,0.194929,-0.211223
2.97773,0.0467786,-0.243117
2.97518,0.0467386,0.0519384
3.03411,0.345693,-0.19571
2.9374,-0.097443,-0.171161
2.97716,0.0467698,0.121308
3.01443,0.194935,-0.14071
2.97155,0.0466817,-0.155752
3.00709,0.194461,0.369995
3.03384,0.345663,-0.124401
3.00491,0.19432,-0.0700686
3.03708,0.335297,-0.0533346
3.00638,0.183878,0
2.94982,-0.108165,-0.0343645
2.97577,0.0363577,-0.378805
2.98373,0.0364549,-0.0173428
3.00894,0.184035,-0.324718
2.93725,-0.107704,-0.274371
3.00158,0.183584,0.0699755
2.94982,-0.108165,0.0343645
2.98186,0.0364321,-0.243443
2.97932,0.0364011,0.0520082
3.03529,0.3351,-0.19571
2.97731,0.0363765,0.121308
3.00313,0.183679,-0.140152
2.96771,0.0362592,-0.155542
3.00379,0.183719,0.369508
3.03503,0.33507,-0.124401
3.00158,0.183584,-0.0699755
3.03426,0.324268,-0.0532647
2.96663,0.0258886,-0.0863407
2.96516,0.0258758,-0.593059
3.00301,0.173152,0
2.94543,-0.118301,-0.0343179
2.99888,0.172914,-0.467331
2.97588,0.0259693,-0.378805
3.00162,0.173072,-0.323862
2.93685,-0.117957,-0.274371
3.0022,0.173105,0.0699755
2.94143,-0.118141,0.0342714
3.00366,0.173189,-0.210386
3.02548,0.32333,0.0885516
2.97943,0.0260003,0.0520082
3.03248,0.324077,-0.195454
2.99793,0.172859,0.174882
2.97342,0.0259479,0.121145
3.00375,0.173194,-0.140152
3.02426,0.323199,-0.123913
2.99821,0.172875,-0.0698825
3.03537,0.313676,-0.0532647
2.9667,0.015535,-0.0863407
2.96523,0.0155273,-0.593059
3.0036,0.16267,0
2.941,-0.128406,-0.0342714
2.99158,0.162019,-0.466102
2.97198,0.0155626,-0.3783
3.00221,0.162595,-0.323862
2.93245,-0.128032,-0.273999
2.99879,0.16241,0.0698825
2.941,-0.128406,0.0342714
3.00425,0.162706,-0.210386
2.97008,0.0155527,-0.242466
2.97151,0.0155602,0.0518686
3.02962,0.313082,-0.195198
2.93622,-0.128197,-0.171161
2.99453,0.162179,0.17465
2.97349,0.0155706,0.121145
3.00433,0.16271,-0.140152
2.96389,0.0155203,-0.155333
2.99707,0.162317,0.368533
3.02537,0.312642,-0.123913
2.99879,0.16241,-0.0698825
3.03241,0.30321,-0.0531949
2.96274,0.00568848,-0.0862243
2.96527,0.00569334,-0.593059
2.99613,0.152302,0
2.94455,-0.138346,-0.0343179
2.9921,0.152097,-0.466102
2.96408,0.00569105,-0.377289
2.97594,0.00571383,-0.0172963
2.99876,0.152436,-0.323433
2.93598,-0.137943,-0.274371
2.99532,0.152261,0.0697894
2.94455,-0.138346,0.0343179
2.9968,0.152336,-0.209827
2.96613,0.00569499,-0.242141
2.97154,0.00570538,0.0518686
3.01872,0.301841,-0.194431
2.97353,0.00570919,0.121145
3.00087,0.152543,-0.139966
2.95993,0.00568309,-0.155124
3.01843,0.301812,-0.123587
2.99133,0.152058,-0.0696964
3.02549,0.291854,-0.0530553
2.96274,-0.00465424,-0.0862243
2.96135,-0.00465205,-0.592274
3.00064,0.142031,0
2.94405,-0.148624,-0.0343179
2.99261,0.141651,-0.466102
2.96805,-0.00466257,-0.377795
2.97195,-0.00466869,-0.017273
2.99927,0.141966,-0.323433
2.93151,-0.147991,-0.273999
2.99983,0.141993,0.0698825
2.94006,-0.148423,0.0342714
2.99732,0.141874,-0.209827
2.97012,-0.00466582,-0.242466
2.97154,-0.00466806,0.0518686
3.01976,0.291301,-0.194431
2.97353,-0.00467118,0.121145
3.00138,0.142066,-0.139966
2.95993,-0.00464982,-0.155124
2.99414,0.141723,0.368045
2.96214,-0.00465329,0.241815
3.02345,0.291657,-0.12375
2.96708,-0.00466105,0.540976
2.99184,0.141615,-0.0696964
3.02246,0.28145,-0.0529855
2.95871,-0.0144589,-0.086108
2.9574,-0.0144524,-0.59149
2.9971,0.131905,0
2.93955,-0.158171,-0.0342714
2.99306,0.131727,-0.466102
2.96405,-0.014485,-0.377289
2.99575,0.131845,-0.323005
2.9883,0.131517,0.0696033
2.93955,-0.158171,0.0342714
2.99378,0.131759,-0.209548
2.97008,-0.0145145,-0.242466
2.97151,-0.0145214,0.0518686
3.02468,0.281656,-0.194687
2.9655,-0.0144921,0.120819
2.99385,0.131762,-0.139593
2.9599,-0.0144647,-0.155124
2.99856,0.131969,0.368533
2.96211,-0.0144755,0.241815
3.02042,0.281259,-0.123587
2.96705,-0.0144996,0.540976
2.9883,0.131517,-0.0696033
3.01949,0.270014,-0.0529157
2.95464,-0.0252682,-0.0859916
2.94948,-0.025224,-0.589921
2.98957,0.120597,0
2.93496,-0.168714,-0.0342248
2.98563,0.120438,-0.464872
2.96794,-0.0253819,-0.377795
2.96784,-0.0253811,-0.0172498
2.9843,0.120384,-0.32172
2.92245,-0.167995,-0.273256
2.99675,0.120887,0.0697894
2.93096,-0.168484,0.0341782
2.98627,0.120464,-0.20899
2.96204,-0.0253314,-0.241815
3.01469,0.269585,0.0880861
2.96744,-0.0253776,0.0517987
3.01377,0.269503,-0.193919
2.9885,0.120554,0.174185
2.96943,-0.0253946,0.120982
2.99432,0.120788,-0.139593
2.95184,-0.0252442,-0.154705
2.96204,-0.0253314,0.241815
3.02143,0.270188,-0.123587
2.98876,0.120564,-0.0696033
2.95054,-0.0355329,-0.0858753
2.94937,-0.0355188,-0.589921
2.98997,0.110161,0
2.92237,-0.178226,-0.0340851
2.97813,0.109725,-0.463642
2.9599,-0.0356456,-0.376784
2.99265,0.11026,-0.322576
2.92582,-0.178437,-0.273627
2.99316,0.110279,0.0696964
2.93435,-0.178957,0.0342248
2.98668,0.11004,-0.20899
2.96193,-0.0356701,-0.241815
2.96733,-0.0357351,0.0517987
3.01867,0.259323,-0.194175
2.92161,-0.17818,-0.170464
2.9889,0.110122,0.174185
2.96533,-0.035711,0.120819
2.99472,0.110336,-0.139593
2.95174,-0.0355473,-0.154705
2.98752,0.110071,0.36707
2.96294,-0.0356822,0.540259
2.98916,0.110132,-0.0696033
3.0213,0.248928,-0.0529157
2.95439,-0.0458948,-0.0859916
2.94531,-0.0457537,-0.589136
2.98634,0.0995896,0
2.92971,-0.188942,-0.0341782
2.97454,0.0991962,-0.463027
2.95182,-0.0458549,-0.375774
2.99301,0.0998122,-0.322576
2.92121,-0.188393,-0.273256
2.98953,0.0996959,0.0696033
2.93371,-0.189199,0.0342248
2.98704,0.099613,-0.20899
2.9578,-0.0459478,-0.24149
2.95519,-0.0459073,0.0515893
3.00762,0.2478,-0.193408
2.92097,-0.188378,-0.170464
2.98528,0.0995543,0.173952
2.96518,-0.0460624,0.120819
2.99109,0.0997481,-0.139407
2.98392,0.0995089,0.366583
2.95382,-0.0458859,0.241164
3.01129,0.248103,-0.123099
2.96279,-0.0460253,0.540259
2.98553,0.0995627,-0.0695103
3.01816,0.238065,-0.0528459
2.95421,-0.0562081,-0.0859916
2.95297,-0.0561845,-0.590705
2.99067,0.0892833,0
2.92904,-0.199168,-0.0341782
2.97882,0.0889297,-0.463642
2.95165,-0.0561592,-0.375774
2.97744,0.0888885,-0.320863
2.92053,-0.19859,-0.273256
2.98586,0.0891398,0.0695103
2.92505,-0.198897,0.0341317
2.98737,0.0891849,-0.20899
2.95364,-0.0561971,-0.241164
2.96301,-0.0563755,0.0517289
3.01244,0.237613,-0.193663
2.98162,0.0890131,0.173719
2.96101,-0.0563373,0.120656
2.99142,0.0893058,-0.139407
2.95141,-0.0561548,-0.154705
2.98425,0.0890917,0.366583
3.00417,0.236961,-0.122773
2.97787,0.0889012,-0.0693242
3.011,0.226927,-0.0527063
2.95,-0.0664292,-0.0858753
2.94884,-0.066403,-0.589921
2.98696,0.0787386,0
2.92832,-0.209391,-0.0341782
2.97911,0.0785317,-0.463642
2.9554,-0.0665508,-0.376279
2.97773,0.0784953,-0.320863
2.98216,0.0786119,0.0694172
2.92832,-0.209391,0.0341782
2.98368,0.078652,-0.208711
2.95342,-0.0665063,-0.241164
3.00927,0.226797,-0.193408
2.9156,-0.208481,-0.170231
2.98191,0.0786054,0.173719
2.94881,-0.0664023,0.120168
2.97973,0.078548,-0.138849
2.94721,-0.0663663,-0.154496
2.98454,0.0786748,0.366583
2.94944,-0.0664165,0.240839
3.00896,0.226774,-0.122936
2.95453,-0.0665312,0.538824
2.97816,0.0785066,-0.0693242
3.00779,0.216128,-0.0526365
2.94576,-0.0766229,-0.0857589
2.94075,-0.0764926,-0.588352
2.97522,0.0680368,0
2.92758,-0.219612,-0.0341782
2.97542,0.0680413,-0.463027
2.95118,-0.076764,-0.375774
3.0042,0.215871,0.0175055
2.95895,-0.076966,-0.0172033
2.97799,0.0681001,-0.320863
2.9151,-0.218676,-0.272884
2.98241,0.0682012,0.0694172
2.92359,-0.219312,0.0341317
2.97994,0.0681447,-0.208432
2.95317,-0.0768158,-0.241164
3.01005,0.216291,-0.193408
2.92282,-0.219255,-0.170696
2.97817,0.0681043,0.173487
2.95655,-0.0769035,0.120494
2.97999,0.0681458,-0.138849
2.94296,-0.0765502,-0.154286
2.94919,-0.0767121,0.240839
3.00575,0.215982,-0.122773
2.95428,-0.0768446,0.538824
2.98241,0.0682012,-0.0694172
3.01251,0.205901,-0.0527063
2.94547,-0.086905,-0.0857589
2.93654,-0.0866415,-0.587567
2.97544,0.0576509,0
2.9228,-0.229516,-0.0341317
2.96774,0.0575016,-0.461797
2.9509,-0.0870651,-0.375774
2.95866,-0.0872942,-0.0172033
2.97821,0.0577045,-0.320863
2.98263,0.0577902,0.0694172
2.9228,-0.229516,0.0341317
2.97617,0.0576651,-0.208153
2.9489,-0.0870063,-0.240839
2.95826,-0.0872824,0.0516591
3.00282,0.205238,-0.192896
2.91408,-0.228831,-0.170231
2.97839,0.0577081,0.173487
2.95626,-0.0872233,0.120494
2.9842,0.0578207,-0.139035
2.98105,0.0577596,0.366096
2.99851,0.204944,-0.122448
2.95793,-0.0872726,0.539542
2.97464,0.0576353,-0.0692311
3.00919,0.19565,-0.0526365
2.94916,-0.0968032,-0.0858753
2.94016,-0.0965077,-0.588352
2.97562,0.0477837,0
2.92203,-0.239207,-0.0341317
2.96791,0.0476599,-0.461797
2.94266,-0.0965898,-0.374764
2.97043,0.0477004,-0.320006
2.91751,-0.238838,-0.273256
2.98681,0.0479634,0.0695103
2.92203,-0.239207,0.0341317
2.97635,0.0477954,-0.208153
2.9486,-0.0967847,-0.240839
2.94996,-0.0968295,0.0515195
2.9995,0.19502,-0.19264
2.90932,-0.238167,-0.169998
2.97458,0.047767,0.173254
2.95196,-0.0968951,0.120331
2.97639,0.0477961,-0.138663
2.93838,-0.0964494,-0.154077
2.97328,0.0477462,0.365121
2.94461,-0.0966539,0.240513
3.00316,0.195259,-0.12261
2.94976,-0.0968227,0.538107
2.97881,0.047835,-0.0693242
3.00589,0.184375,-0.0525666
2.9408,-0.10732,-0.0856425
2.93586,-0.10714,-0.587567
2.97577,0.0368772,0
2.92113,-0.249916,-0.0341317
2.96806,0.0367817,-0.461797
2.94229,-0.107375,-0.374764
2.95398,-0.107801,-0.01718
2.97059,0.0368129,-0.320006
2.91265,-0.24919,-0.272884
2.97897,0.0369167,0.0693242
2.92113,-0.249916,0.0341317
2.9765,0.0368862,-0.208153
2.94424,-0.107446,-0.240513
2.95358,-0.107787,0.0515893
3.00019,0.184025,-0.19264
2.97074,0.0368148,0.173022
2.94759,-0.107568,0.120168
2.97654,0.0368867,-0.138663
2.942,-0.107364,-0.154286
2.98138,0.0369467,0.366096
2.99588,0.183761,-0.122285
2.94938,-0.107633,0.538107
2.97097,0.0368176,-0.0691381
3.00252,0.17365,-0.0524968
2.9404,-0.117585,-0.0856425
2.93547,-0.117388,-0.587567
2.97588,0.0264896,0
2.92024,-0.260111,-0.0341317
2.96817,0.026421,-0.461797
2.94189,-0.117644,-0.374764
2.99894,0.173443,0.017459
2.97467,0.0264788,-0.320434
2.97508,0.0264824,0.0692311
2.97262,0.0264606,-0.207874
2.94385,-0.117722,-0.240513
2.94919,-0.117936,0.0515195
3.0048,0.173782,-0.192896
2.96686,0.0264092,0.172789
2.9432,-0.117697,0.120005
2.97665,0.0264964,-0.138663
2.93762,-0.117473,-0.154077
2.96958,0.0264335,0.364633
2.99251,0.173071,-0.122122
2.94899,-0.117928,0.538107
2.96708,0.0264112,-0.069045
2.99912,0.162951,-0.052427
2.93598,-0.127674,-0.0855262
2.96796,0.0160583,0
2.91533,-0.269934,-0.0340851
2.9643,0.0160385,-0.461182
2.9375,-0.12774,-0.374259
2.99553,0.162757,0.0174357
2.94916,-0.128248,-0.0171568
2.96282,0.0160305,-0.319149
2.97115,0.0160756,0.0691381
2.91135,-0.269565,0.0340385
2.96472,0.0160408,-0.207316
2.94342,-0.127998,-0.240513
2.99431,0.16269,0.0872716
2.94876,-0.12823,0.0515195
2.99343,0.162643,-0.192128
2.90264,-0.268759,-0.169766
2.94677,-0.128143,0.120168
2.96874,0.0160626,-0.13829
2.94342,-0.127998,0.240513
3.00108,0.163058,-0.122448
2.95249,-0.128392,0.538824
2.97515,0.0160973,-0.0692311
3.00361,0.153733,-0.0524968
2.93557,-0.136897,-0.0855262
2.92288,-0.136306,-0.585214
2.96799,0.00673418,0
2.91049,-0.27871,-0.0340385
2.96038,0.0067169,-0.460567
2.94105,-0.137153,-0.374764
2.99603,0.153345,0.0174357
2.96285,0.00672252,-0.319149
2.97519,0.0067505,0.0692311
2.90651,-0.278329,0.033992
2.96076,0.00671777,-0.207037
2.93902,-0.137058,-0.240188
2.94435,-0.137307,0.0514497
2.90179,-0.277877,-0.169766
2.97495,0.00674997,0.173254
2.94635,-0.1374,0.120168
2.96877,0.00673595,-0.13829
2.96572,0.00672902,0.364146
2.94814,-0.137484,0.538107
2.97119,0.00674143,-0.0691381
2.99619,0.141821,-0.0523572
2.93901,-0.14837,-0.0856425
2.92233,-0.147528,-0.585214
2.968,-0.00466212,0
2.9094,-0.289883,-0.0340385
2.96038,-0.00465016,-0.460567
2.93654,-0.148245,-0.374259
2.9926,0.141651,0.0174125
2.9482,-0.148833,-0.0171568
2.96286,-0.00465405,-0.319149
2.897,-0.288648,-0.271768
2.97119,-0.00466714,0.0691381
2.91338,-0.29028,0.0340851
2.96077,-0.00465076,-0.207037
2.93449,-0.148141,-0.239862
2.9438,-0.148612,0.0514497
2.90467,-0.289413,-0.169998
2.96697,-0.00466051,0.172789
2.9458,-0.148712,0.120168
2.96878,-0.00466335,-0.13829
2.92825,-0.147826,-0.153658
2.96572,-0.00465855,0.364146
2.93449,-0.148141,0.239862
2.98618,0.141347,-0.121796
2.94759,-0.148803,0.538107
2.97119,-0.00466714,-0.0691381
2.99267,0.131186,-0.0522874
2.93848,-0.158628,-0.0856425
2.96396,-0.0150021,0
2.91235,-0.300448,-0.0340851
2.9564,-0.0149638,-0.459953
2.93204,-0.15828,-0.373754
2.98908,0.131029,0.0173892
2.95885,-0.0149762,-0.318721
2.89597,-0.298759,-0.271768
2.96716,-0.0150183,0.069045
2.91235,-0.300448,0.0340851
2.95674,-0.0149655,-0.206758
2.93395,-0.158384,-0.239862
2.93927,-0.158671,0.0513799
2.987,0.130937,-0.191617
2.96294,-0.0149969,0.172557
2.97274,-0.0150465,-0.138477
2.9317,-0.158262,-0.153868
2.96966,-0.0150309,0.364633
2.94313,-0.158879,0.537389
2.96316,-0.014998,-0.0689519
2.98512,0.120417,-0.0521478
2.92593,-0.168196,-0.0852934
2.92123,-0.167926,-0.585214
2.96389,-0.0253482,0
2.9073,-0.310188,-0.0340385
2.95237,-0.0252497,-0.459338
2.92751,-0.168286,-0.373249
2.94309,-0.169182,-0.0171335
2.95082,-0.0252364,-0.317864
2.96309,-0.0253413,0.0689519
2.91526,-0.311036,0.0341317
2.96465,-0.0253547,-0.207316
2.93736,-0.168853,-0.240188
2.98431,0.120384,0.0869225
2.98345,0.120349,-0.191361
2.95888,-0.0253053,0.172324
2.93671,-0.168815,0.119842
2.95669,-0.0252865,-0.137732
2.92316,-0.168036,-0.153449
2.96165,-0.025329,0.363658
2.93736,-0.168853,0.240188
2.9831,0.120335,-0.121633
2.94255,-0.169151,0.537389
2.95909,-0.0253071,-0.0688589
2.98952,0.110143,-0.0522176
2.95179,-0.0355494,0
2.9062,-0.320334,-0.0340385
2.95227,-0.0355552,-0.459338
2.9269,-0.178504,-0.373249
2.98592,0.110011,0.017366
2.95469,-0.0355844,-0.318292
2.96298,-0.0356843,0.0689519
2.9062,-0.320334,0.0340385
2.95657,-0.035607,-0.206758
2.93676,-0.179105,-0.240188
2.93809,-0.179187,0.0513799
2.98385,0.109934,-0.191361
2.89354,-0.318939,-0.169533
2.95877,-0.0356335,0.172324
2.9361,-0.179065,0.119842
2.95258,-0.035559,-0.137546
2.95757,-0.0356191,0.363171
2.9288,-0.17862,0.239537
2.9835,0.109921,-0.121633
2.94194,-0.179422,0.537389
2.95499,-0.0355879,-0.0687658
2.98985,0.100751,-0.0522176
2.92874,-0.187853,-0.0854098
2.95166,-0.0448225,0
2.90518,-0.329463,-0.0340385
2.94424,-0.0447098,-0.458108
2.92633,-0.187698,-0.373249
2.98625,0.10063,0.017366
2.95059,-0.0448063,-0.317864
2.96685,-0.0450533,0.069045
2.90121,-0.329012,0.033992
2.96043,-0.0449557,-0.207037
2.92424,-0.187565,-0.239212
2.93752,-0.188416,0.0513799
2.98418,0.10056,-0.191361
2.89253,-0.328028,-0.169533
2.96264,-0.0449892,0.172557
2.93154,-0.188033,0.119679
2.95246,-0.0448346,-0.137546
2.96142,-0.0449707,0.363658
2.92822,-0.18782,0.239537
2.97984,0.100413,-0.121471
2.94137,-0.188663,0.537389
2.95886,-0.0449318,-0.0688589
2.9862,0.0896716,-0.0521478
2.92005,-0.198045,-0.0851771
2.91152,-0.197466,-0.583645
2.95548,-0.055716,0
2.90793,-0.340574,-0.0340851
2.94801,-0.0555752,-0.458723
2.92562,-0.198423,-0.373249
2.97861,0.0894437,0.0173195
2.95041,-0.0556204,-0.317864
2.96667,-0.055927,0.069045
2.90395,-0.340108,0.0340385
2.94828,-0.0555803,-0.2062
2.92354,-0.198281,-0.239212
2.98139,0.0895273,0.0868062
2.92882,-0.19864,0.0512403
2.89131,-0.338627,-0.169533
2.95846,-0.0557723,0.172324
2.93083,-0.198776,0.119679
2.95627,-0.055731,-0.137732
2.91729,-0.197858,-0.15324
2.95726,-0.0557497,0.363171
2.92751,-0.198551,0.239537
2.98018,0.089491,-0.121471
2.93673,-0.199176,0.536672
2.95867,-0.0557763,-0.0688589
2.9785,0.0790351,-0.0520082
2.91934,-0.208237,-0.0851771
2.91081,-0.207628,-0.583645
2.95526,-0.0660322,0
2.89878,-0.349764,-0.033992
2.93989,-0.0656887,-0.457493
2.92491,-0.208634,-0.373249
2.9749,0.0789397,0.0172963
2.93649,-0.20946,-0.0171103
2.94224,-0.0657412,-0.317007
2.88642,-0.348274,-0.271397
2.95846,-0.0661036,0.0688589
2.89878,-0.349764,0.033992
2.94407,-0.0657822,-0.205921
2.92283,-0.208485,-0.239212
2.93609,-0.209432,0.0513799
2.97684,0.0789912,-0.190849
2.95026,-0.0659205,0.171859
2.93411,-0.20929,0.119842
2.96005,-0.0661392,-0.137918
2.92056,-0.208324,-0.153449
2.95705,-0.0660721,0.363171
2.9268,-0.208769,0.239537
2.97249,0.0788756,-0.121145
2.93209,-0.209146,0.535954
2.95046,-0.065925,-0.0686728
2.97476,0.0685456,-0.0519384
2.9186,-0.218426,-0.0851771
2.94702,-0.0761409,0
2.89754,-0.35988,-0.033992
2.9436,-0.0760526,-0.458108
2.92021,-0.218546,-0.372744
2.97516,0.0685549,0.0172963
2.93175,-0.21941,-0.017087
2.94199,-0.0760112,-0.317007
2.95821,-0.0764302,0.0688589
2.90151,-0.360373,0.0340385
2.95579,-0.0763677,-0.206758
2.92208,-0.218687,-0.239212
2.97395,0.0685271,0.0865734
2.92737,-0.219082,0.0512403
2.97311,0.0685077,-0.190593
2.88491,-0.358312,-0.169301
2.95002,-0.0762184,0.171859
2.92937,-0.219232,0.119679
2.94382,-0.0760585,-0.137174
2.91583,-0.218219,-0.15324
2.96077,-0.0764963,0.363658
2.93003,-0.219282,0.239862
2.97274,0.0684992,-0.121145
2.95022,-0.0762236,-0.0686728
2.97898,0.0582395,-0.0520082
2.9218,-0.228925,-0.0852934
2.90538,-0.227638,-0.582861
2.94673,-0.0864275,0
2.8923,-0.369486,-0.0339454
2.94331,-0.0863272,-0.458108
2.92338,-0.229048,-0.373249
2.97538,0.0581692,0.0172963
2.94171,-0.0862802,-0.317007
2.95793,-0.0867558,0.0688589
2.88833,-0.368979,0.0338988
2.93955,-0.086217,-0.205642
2.91733,-0.228574,-0.238886
2.97417,0.0581456,0.0865734
2.93057,-0.229612,0.0513101
2.96934,0.0580511,-0.190338
2.8876,-0.368886,-0.169533
2.94973,-0.0865154,0.171859
2.9246,-0.229144,0.119517
2.93955,-0.0862167,-0.136988
2.91107,-0.228084,-0.15303
2.94858,-0.0864816,0.362196
2.91733,-0.228574,0.238886
2.95393,-0.0866386,-0.0687658
2.97915,0.0483606,-0.0520082
2.91704,-0.238287,-0.0851771
2.95043,-0.0963292,0
2.89106,-0.379075,-0.0339454
2.93906,-0.0959581,-0.457493
2.92261,-0.238741,-0.373249
2.97156,0.0482373,0.017273
2.94538,-0.0961646,-0.317436
2.95363,-0.0964337,0.0687658
2.89106,-0.379075,0.0339454
2.94723,-0.0962248,-0.2062
2.91258,-0.237922,-0.238561
2.92182,-0.238677,0.0511705
2.96952,0.0482041,-0.190338
2.95342,-0.0964269,0.172092
2.92383,-0.238841,0.119517
2.94723,-0.0962249,-0.13736
2.94828,-0.096259,0.362196
2.91655,-0.238247,0.238886
2.95363,-0.0964337,-0.0687658
2.9793,0.0379611,-0.0520082
2.91221,-0.248129,-0.0850607
2.90376,-0.247409,-0.582861
2.94208,-0.106339,0
2.89368,-0.389698,-0.033992
2.93476,-0.106074,-0.456878
2.91385,-0.248268,-0.372239
2.97171,0.0378643,0.017273
2.93708,-0.106158,-0.316579
2.8774,-0.387506,-0.271025
2.95327,-0.106743,0.0687658
2.88972,-0.389164,0.0339454
2.94289,-0.106368,-0.205921
2.9157,-0.248426,-0.238886
2.9705,0.0378489,0.0864571
2.92097,-0.248875,0.0511705
2.96567,0.0377874,-0.190082
2.88107,-0.387999,-0.169301
2.95306,-0.106736,0.172092
2.92696,-0.249385,0.119679
2.94688,-0.106512,-0.13736
2.91343,-0.248233,-0.15324
2.95189,-0.106693,0.362683
2.9157,-0.248426,0.238886
2.95327,-0.106743,-0.0687658
2.97143,0.0269686,-0.0518686
2.91925,-0.259509,-0.0852934
2.94567,-0.11728,0
2.88431,-0.399205,-0.0338988
2.93435,-0.11683,-0.456878
2.91292,-0.258946,-0.372239
2.96783,0.0269359,0.0172498
2.92043,-0.259614,-0.0170405
2.87596,-0.39805,-0.271025
2.95286,-0.117567,0.0687658
2.89223,-0.400301,0.033992
2.94647,-0.117312,-0.2062
2.9108,-0.258758,-0.238561
2.92004,-0.259579,0.0511705
2.9618,0.0268812,-0.189826
2.94467,-0.117241,0.171626
2.94647,-0.117312,-0.13736
2.90852,-0.258555,-0.15303
2.94751,-0.117354,0.362196
2.92271,-0.259817,0.239537
2.94886,-0.117408,-0.0686728
2.9675,0.0165738,-0.0517987
2.94124,-0.127389,0
2.8829,-0.40927,-0.0338988
2.93787,-0.127243,-0.457493
2.912,-0.269113,-0.372239
2.9679,0.0165761,0.0172498
2.92349,-0.270175,-0.0170638
2.94844,-0.1277,0.0686728
2.89082,-0.410395,0.033992
2.93408,-0.127079,-0.205363
2.90591,-0.26855,-0.238235
2.9667,0.0165693,0.0863407
2.91911,-0.26977,0.0511705
2.96188,0.0165424,-0.189826
2.94425,-0.127519,0.171626
2.91714,-0.269588,0.119354
2.9076,-0.268707,-0.15303
2.94312,-0.12747,0.361708
2.90988,-0.268917,0.238561
2.96549,0.0165626,-0.120819
2.94045,-0.127354,-0.0684867
2.96754,0.00725109,-0.0517987
2.9095,-0.278103,-0.0850607
2.93284,-0.136257,0
2.88555,-0.4189,-0.0339454
2.92561,-0.135921,-0.455648
2.91114,-0.278259,-0.372239
2.96794,0.00725208,0.0172498
2.92789,-0.136027,-0.315722
2.94802,-0.136963,0.0686728
2.88555,-0.4189,0.0339454
2.92968,-0.13611,-0.205084
2.90505,-0.277678,-0.238235
2.96274,0.00723936,0.0862243
2.91825,-0.27894,0.0511705
2.95792,0.0072276,-0.18957
2.87297,-0.417072,-0.169068
2.94383,-0.136768,0.171626
2.91628,-0.278751,0.119354
2.92966,-0.136109,-0.136615
2.90277,-0.27746,-0.152821
2.9427,-0.136715,0.361708
2.91696,-0.278816,0.239212
2.96553,0.00724619,-0.120819
2.94403,-0.136777,-0.0685797
2.97155,-0.00363041,-0.0518686
2.90448,-0.28837,-0.0849444
2.93232,-0.147006,0
2.88004,-0.428884,-0.0338988
2.90615,-0.288535,-0.371734
2.96795,-0.00362602,0.0172498
2.93134,-0.146957,-0.316151
2.94351,-0.147566,0.0685797
2.88004,-0.428884,0.0338988
2.93315,-0.147047,-0.205363
2.90005,-0.28793,-0.23791
2.91323,-0.289239,0.0511006
2.95793,-0.00361378,-0.18957
2.87142,-0.427599,-0.169068
2.94331,-0.147557,0.171626
2.91126,-0.289043,0.119191
2.93712,-0.147246,-0.136988
2.90173,-0.288097,-0.152821
2.94218,-0.1475,0.361708
2.93951,-0.147366,-0.0684867
2.96352,-0.0139653,-0.0517289
2.90744,-0.298916,-0.0850607
2.93179,-0.15724,0
2.88644,-0.44014,-0.033992
2.92851,-0.157065,-0.456263
2.90512,-0.298678,-0.371734
2.95992,-0.0139484,0.0172033
2.92684,-0.156975,-0.315722
2.94697,-0.158054,0.0686728
2.87853,-0.438935,0.0338988
2.93261,-0.157285,-0.205363
2.89902,-0.298051,-0.23791
2.96271,-0.0139616,0.0862243
2.9122,-0.299406,0.0511006
2.86991,-0.43762,-0.169068
2.94676,-0.158044,0.171859
2.91421,-0.299612,0.119354
2.9326,-0.157284,-0.136801
2.89673,-0.297816,-0.152612
2.94165,-0.157769,0.361708
2.90299,-0.298459,0.238235
2.93898,-0.157626,-0.0684867
2.95545,-0.0237284,-0.0515893
2.90245,-0.308134,-0.0849444
2.93125,-0.166962,0
2.88101,-0.449094,-0.0339454
2.92403,-0.16655,-0.455648
2.90806,-0.308729,-0.372239
2.96385,-0.0237959,0.0172265
2.91557,-0.309526,-0.0170405
2.87267,-0.447793,-0.271397
2.87706,-0.448478,0.0338988
2.92411,-0.166555,-0.204805
2.89802,-0.307663,-0.23791
2.95865,-0.0237541,0.086108
2.90722,-0.308639,0.0510308
2.95384,-0.0237155,-0.189314
2.93426,-0.167133,0.171161
2.90128,-0.308009,0.118865
2.92807,-0.166781,-0.136615
2.8997,-0.307842,-0.152821
2.94111,-0.167523,0.361708
2.90991,-0.308925,0.238886
2.95345,-0.0237124,-0.120331
2.93445,-0.167144,-0.0683936
2.95935,-0.0346073,-0.0516591
2.89733,-0.318333,-0.084828
2.92662,-0.177462,0
2.88329,-0.460281,-0.033992
2.91945,-0.177027,-0.455033
2.89902,-0.318519,-0.371229
2.95975,-0.034612,0.0172033
2.93781,-0.17814,0.0684867
2.87934,-0.45965,0.0339454
2.92348,-0.177271,-0.204805
2.89687,-0.318283,-0.23791
2.96254,-0.0346447,0.0862243
2.91004,-0.31973,0.0511006
2.93762,-0.178129,0.171394
2.90013,-0.31864,0.118865
2.92345,-0.17727,-0.136429
2.89856,-0.318467,-0.152821
2.94048,-0.178302,0.361708
2.9048,-0.319153,0.238561
2.95335,-0.0345372,-0.120331
2.93382,-0.177898,-0.0683936
2.95921,-0.0449371,-0.0516591
2.90017,-0.328895,-0.0849444
2.922,-0.187421,0
2.88167,-0.470342,-0.033992
2.91882,-0.187217,-0.455033
2.89789,-0.328636,-0.371229
2.95961,-0.0449432,0.0172033
2.9171,-0.187106,-0.314865
2.93717,-0.188394,0.0684867
2.86983,-0.46841,0.0338523
2.91886,-0.18722,-0.204526
2.89574,-0.328393,-0.23791
2.95441,-0.0448643,0.0859916
2.90493,-0.329435,0.0510308
2.94961,-0.0447914,-0.189058
2.92901,-0.18787,0.170929
2.89503,-0.328311,0.118702
2.89346,-0.328133,-0.152612
2.93191,-0.188057,0.360733
2.90367,-0.329291,0.238561
2.94921,-0.0447854,-0.120168
2.92919,-0.187882,-0.0683006
2.95904,-0.05475,-0.0516591
2.89907,-0.338511,-0.0849444
2.92535,-0.197379,0
2.86826,-0.477924,-0.0338523
2.89285,-0.337784,-0.370724
2.95944,-0.0547574,0.0172033
2.92043,-0.197047,-0.315294
2.93653,-0.198133,0.0684867
2.87615,-0.479238,0.0339454
2.91822,-0.196898,-0.204526
2.94944,-0.0545723,-0.189058
2.94032,-0.198389,0.171626
2.90186,-0.338837,0.119028
2.92218,-0.197165,-0.136429
2.89632,-0.33819,-0.152821
2.93127,-0.197778,0.360733
2.92855,-0.197594,-0.0683006
2.95482,-0.0655064,-0.0515893
2.89384,-0.348656,-0.084828
2.87437,-0.489777,-0.0339454
2.89159,-0.348385,-0.370724
2.95123,-0.0654266,0.0171568
2.91572,-0.207467,-0.314865
2.9278,-0.208327,0.0683006
2.87043,-0.489105,0.0338988
2.92146,-0.207876,-0.204805
2.88942,-0.348124,-0.237584
2.95402,-0.0654886,0.0859916
2.89859,-0.349229,0.050961
2.94922,-0.0653822,-0.189058
2.93559,-0.208881,0.171394
2.89663,-0.348992,0.118865
2.92144,-0.207874,-0.136429
2.89506,-0.348803,-0.152821
2.93449,-0.208802,0.361221
2.93179,-0.208611,-0.0683936
2.95458,-0.0758203,-0.0515893
2.8926,-0.358755,-0.084828
2.91987,-0.218009,0
2.87265,-0.499807,-0.0339454
2.90881,-0.217183,-0.453803
2.89429,-0.358964,-0.371229
2.95098,-0.0757279,0.0171568
2.90569,-0.360378,-0.0170173
2.93503,-0.219141,0.0684867
2.86082,-0.49775,0.0338057
2.91674,-0.217775,-0.204526
2.88423,-0.357717,-0.237259
2.94978,-0.0756972,0.0858753
2.94499,-0.0755742,-0.188803
2.92688,-0.218532,0.170929
2.90333,-0.360085,0.119191
2.91671,-0.217773,-0.136243
2.88986,-0.358415,-0.152612
2.93374,-0.219044,0.361221
2.8961,-0.359189,0.238235
2.94459,-0.0755639,-0.120005
2.92706,-0.218545,-0.0683006
2.95031,-0.0855017,-0.0515195
2.88743,-0.36784,-0.0847116
2.87097,-0.509331,-0.0339454
2.91202,-0.227135,-0.454418
2.89309,-0.36856,-0.371229
2.95071,-0.0855133,0.0171568
2.91027,-0.226999,-0.314437
2.92632,-0.228251,0.0683006
2.87491,-0.510029,0.033992
2.916,-0.227446,-0.204526
2.88699,-0.367783,-0.237584
2.95351,-0.0855944,0.0859916
2.90012,-0.369456,0.0510308
2.94073,-0.085224,-0.188547
2.92614,-0.228237,0.170929
2.89815,-0.369206,0.119028
2.91199,-0.227133,-0.136057
2.88866,-0.367996,-0.152612
2.92904,-0.228463,0.360733
2.8949,-0.368791,0.238235
2.94832,-0.0854439,-0.120168
2.92632,-0.228251,-0.0683006
2.946,-0.0956699,-0.0514497
2.88613,-0.377917,-0.0847116
2.86524,-0.518637,-0.0338988
2.88785,-0.378142,-0.370724
2.95039,-0.0958127,0.0171568
2.92949,-0.238789,0.0683936
2.85737,-0.517212,0.0338057
2.91121,-0.237299,-0.204247
2.88964,-0.378376,-0.23791
2.9492,-0.0957738,0.0858753
2.90277,-0.380096,0.0511006
2.94041,-0.0954886,-0.188547
2.92931,-0.238774,0.171161
2.89288,-0.378801,0.118865
2.91516,-0.237621,-0.136243
2.8834,-0.377558,-0.152402
2.92427,-0.238363,0.360246
2.88964,-0.378376,0.23791
2.9255,-0.238464,-0.0683006
2.94964,-0.106097,-0.0515195
2.88479,-0.387989,-0.0847116
2.85948,-0.527909,-0.0338523
2.89044,-0.388749,-0.371229
2.95004,-0.106111,0.0171568
2.92864,-0.249013,0.0683936
2.85948,-0.527909,0.0338523
2.91037,-0.24746,-0.204247
2.8804,-0.387398,-0.237259
2.94085,-0.10578,0.0856425
2.89747,-0.389693,0.0510308
2.94006,-0.105752,-0.188547
2.92447,-0.248659,0.170929
2.88758,-0.388364,0.118702
2.91431,-0.247795,-0.136243
2.88206,-0.387621,-0.152402
2.92737,-0.248906,0.360733
2.89225,-0.388992,0.238235
2.92465,-0.248674,-0.0683006
2.95327,-0.116034,-0.0515893
2.88745,-0.398099,-0.084828
2.91265,-0.257385,0
2.85771,-0.537388,-0.0338523
2.88521,-0.39779,-0.370724
2.94168,-0.115579,0.0171103
2.92381,-0.258372,0.0683006
2.86165,-0.538128,0.0338988
2.90555,-0.256758,-0.203968
2.8791,-0.396947,-0.237259
2.94848,-0.115846,0.0858753
2.8922,-0.398753,0.050961
2.93571,-0.115344,-0.188291
2.92761,-0.258707,0.171161
2.8942,-0.399029,0.119028
2.90551,-0.256755,-0.135871
2.88076,-0.397176,-0.152402
2.92258,-0.258263,0.360246
2.88305,-0.397492,0.237584
2.92381,-0.258372,-0.0683006
2.94084,-0.126343,-0.0513799
2.88201,-0.408119,-0.0847116
2.91169,-0.268059,0
2.85965,-0.548612,-0.0338988
2.8798,-0.407805,-0.370218
2.94523,-0.126532,0.0171335
2.89507,-0.409967,-0.016994
2.84747,-0.546275,-0.270653
2.86358,-0.549366,0.0339454
2.90857,-0.267772,-0.204247
2.87368,-0.406938,-0.236933
2.94004,-0.126309,0.0856425
2.89468,-0.409912,0.0510308
2.93128,-0.125932,-0.188035
2.91869,-0.268704,0.170696
2.89667,-0.410195,0.119191
2.90853,-0.267769,-0.136057
2.87928,-0.407732,-0.152402
2.92556,-0.269337,0.360733
2.88552,-0.408615,0.23791
2.93486,-0.126086,-0.119679
2.91886,-0.26872,-0.0682075
2.94038,-0.136608,-0.0513799
2.88057,-0.418176,-0.0847116
2.91472,-0.278602,0
2.86165,-0.559358,-0.0339454
2.87836,-0.417855,-0.370218
2.94477,-0.136812,0.0171335
2.92189,-0.279287,0.0683006
2.8538,-0.557824,0.0338523
2.87618,-0.417539,-0.237259
2.94358,-0.136756,0.0857589
2.88927,-0.419439,0.050961
2.93082,-0.136163,-0.188035
2.91774,-0.27889,0.170696
2.88336,-0.418581,0.118702
2.87784,-0.41778,-0.152402
2.92065,-0.279169,0.360246
2.88802,-0.419257,0.238235
2.93041,-0.136144,-0.119517
2.91791,-0.278907,-0.0682075
2.93991,-0.146357,-0.0513799
2.88312,-0.428314,-0.084828
2.85978,-0.568845,-0.0339454
2.87303,-0.426815,-0.369713
2.94031,-0.146377,0.0171103
2.92095,-0.288975,0.0683006
2.85193,-0.567284,0.0338523
2.87084,-0.426489,-0.236933
2.93911,-0.146318,0.0856425
2.89182,-0.429605,0.0510308
2.93434,-0.14608,-0.188291
2.92077,-0.288957,0.170929
2.88986,-0.429315,0.119028
2.90267,-0.287167,-0.135871
2.87644,-0.427321,-0.152402
2.91576,-0.288462,0.359758
2.88267,-0.428246,0.23791
2.92994,-0.145861,-0.119517
2.91299,-0.288188,-0.0681145
2.93938,-0.156619,-0.0513799
2.87766,-0.437774,-0.0847116
2.90081,-0.297212,0
2.85385,-0.57803,-0.0338988
2.87545,-0.437438,-0.370218
2.93978,-0.15664,0.0171103
2.896,-0.296718,-0.31358
2.85777,-0.578824,0.0339454
2.90169,-0.297301,-0.203968
2.9306,-0.156151,0.0854098
2.88635,-0.439096,0.050961
2.92584,-0.155897,-0.187779
2.91577,-0.298744,0.170696
2.88044,-0.438197,0.118702
2.90165,-0.297297,-0.135871
2.87098,-0.436758,-0.152193
2.91869,-0.299043,0.360246
2.91594,-0.298762,-0.0682075
2.9348,-0.167164,-0.0513101
2.86813,-0.447087,-0.0844789
2.8997,-0.307842,0
2.85955,-0.590103,-0.033992
2.86991,-0.447363,-0.369713
2.93519,-0.167186,0.017087
2.89489,-0.307331,-0.31358
2.85563,-0.589294,0.0339454
2.89661,-0.307513,-0.203689
2.934,-0.167118,0.0855262
2.88077,-0.449056,0.0508912
2.91465,-0.309429,0.170696
2.87882,-0.448752,0.118702
2.89656,-0.307508,-0.135685
2.87331,-0.447893,-0.152402
2.91362,-0.309319,0.359758
2.87559,-0.448249,0.237584
2.91483,-0.309447,-0.0682075
2.93419,-0.177407,-0.0513101
2.8705,-0.457725,-0.0845953
2.90259,-0.318398,0
2.85747,-0.600081,-0.033992
2.9306,-0.17719,0.0170638
2.91373,-0.31962,0.0682075
2.84964,-0.598437,0.0338988
2.89948,-0.318057,-0.203968
2.86614,-0.457029,-0.236933
2.93739,-0.1776,0.0856425
2.87523,-0.458479,0.0508214
2.92066,-0.176589,-0.187524
2.90959,-0.319166,0.170464
2.88118,-0.459427,0.118865
2.89547,-0.317617,-0.135685
2.87173,-0.45792,-0.152402
2.91647,-0.319921,0.360246
2.87401,-0.458284,0.237584
2.92423,-0.176804,-0.119354
2.90578,-0.318748,-0.0680214
2.93359,-0.187136,-0.0513101
2.86502,-0.466599,-0.0844789
2.89357,-0.327123,0
2.84764,-0.607883,-0.0338988
2.92999,-0.186907,0.0170638
2.88198,-0.46936,-0.0169708
2.90868,-0.328831,0.0681145
2.84764,-0.607883,0.0338988
2.89841,-0.327671,-0.203968
2.93279,-0.187085,0.0855262
2.92405,-0.186527,-0.187779
2.91248,-0.329261,0.170696
2.8757,-0.468337,0.118702
2.8944,-0.327217,-0.135685
2.86625,-0.466799,-0.152193
2.91145,-0.329144,0.359758
2.88034,-0.469094,0.238235
2.92363,-0.186501,-0.119354
2.90471,-0.328382,-0.0680214
2.93292,-0.197375,-0.0513101
2.86338,-0.476597,-0.0844789
2.89241,-0.337221,0
2.84941,-0.618668,-0.0339454
2.93332,-0.197402,0.017087
2.90354,-0.338519,0.0680214
2.8416,-0.616971,0.0338523
2.88933,-0.336862,-0.20341
2.93212,-0.197322,0.0855262
2.87993,-0.479353,0.050961
2.91939,-0.196465,-0.187524
2.90735,-0.338963,0.170464
2.8701,-0.477716,0.11854
2.88928,-0.336856,-0.135499
2.90634,-0.338846,0.359271
2.87869,-0.479145,0.238235
2.91897,-0.196437,-0.119191
2.90354,-0.338519,-0.0680214
2.9362,-0.207894,-0.0513799
2.8617,-0.486589,-0.0844789
2.89121,-0.347316,0
2.83942,-0.626886,-0.0338523
2.93261,-0.20764,0.017087
2.87469,-0.488798,-0.0169475
2.90631,-0.349129,0.0681145
2.84724,-0.628611,0.0339454
2.89209,-0.347421,-0.203689
2.92344,-0.206991,0.0852934
2.8743,-0.488732,0.0508912
2.91869,-0.206654,-0.187524
2.91011,-0.349586,0.170696
2.86448,-0.487062,0.118377
2.89998,-0.348369,-0.136057
2.90514,-0.348988,0.359271
2.86521,-0.487186,0.237259
2.90234,-0.348652,-0.0680214
2.85998,-0.496575,-0.0844789
2.89395,-0.357897,0
2.83722,-0.636794,-0.0338523
2.9199,-0.216986,0.0170173
2.87297,-0.49883,-0.0169475
2.84112,-0.63767,0.0338988
2.89086,-0.357515,-0.203689
2.9227,-0.217194,0.0852934
2.86864,-0.498078,0.0508214
2.91397,-0.216545,-0.187268
2.83261,-0.63576,-0.169068
2.90491,-0.359252,0.170464
2.8667,-0.497741,0.11854
2.89875,-0.35849,-0.136057
2.9039,-0.359127,0.359271
2.86742,-0.497866,0.237584
2.90508,-0.359272,-0.0681145
2.93069,-0.228077,-0.0513101
2.85823,-0.506555,-0.0844789
2.88872,-0.367491,0
2.83888,-0.647583,-0.0338988
2.91514,-0.226867,0.016994
2.87121,-0.508855,-0.0169475
2.84278,-0.648473,0.0339454
2.8896,-0.367603,-0.203689
2.85389,-0.505785,-0.236608
2.92591,-0.227705,0.0854098
2.87082,-0.508786,0.0508912
2.91718,-0.227025,-0.187524
2.89968,-0.368886,0.170231
2.87281,-0.50914,0.118865
2.89352,-0.368102,-0.135871
2.86339,-0.507469,-0.152402
2.90263,-0.369261,0.359271
2.86174,-0.507177,0.237259
2.91277,-0.226682,-0.119028
2.89984,-0.368906,-0.0680214
2.92589,-0.237982,-0.0512403
2.88742,-0.377573,0
2.84439,-0.659295,-0.033992
2.91831,-0.237365,0.0170173
2.87335,-0.519586,-0.0169708
2.9025,-0.379545,0.0681145
2.8327,-0.656586,0.0338523
2.88434,-0.37717,-0.20341
2.92908,-0.238241,0.0855262
2.87296,-0.519516,0.050961
2.91239,-0.236883,-0.187268
2.89837,-0.379005,0.170231
2.86315,-0.517742,0.11854
2.88429,-0.377164,-0.135499
2.86553,-0.518172,-0.152612
2.89457,-0.378507,-0.0679284
2.88615,-0.387146,0
2.8383,-0.667808,-0.0339454
2.9215,-0.247379,0.0170405
2.89726,-0.388636,0.0680214
2.8344,-0.666892,0.0338988
2.92031,-0.247278,0.0852934
2.86729,-0.528315,0.0508912
2.90761,-0.246203,-0.187012
2.90106,-0.389145,0.170464
2.85749,-0.52651,0.118377
2.88302,-0.386726,-0.135499
2.90005,-0.38901,0.359271
2.8933,-0.388104,-0.0679284
2.83218,-0.676287,-0.0338988
2.92066,-0.257066,0.0170405
2.86984,-0.538632,-0.0169708
2.83218,-0.676287,0.0338988
2.87782,-0.395748,-0.203131
2.84862,-0.534649,-0.236608
2.91151,-0.25626,0.0850607
2.86552,-0.537821,0.0508912
2.90678,-0.255844,-0.187012
2.8958,-0.398219,0.170231
2.86358,-0.537457,0.118702
2.88568,-0.396829,-0.135685
2.85025,-0.534955,-0.151984
2.90268,-0.399166,0.359758
2.89595,-0.398241,-0.0680214
2.91935,-0.267223,-0.0511705
2.85107,-0.545418,-0.0844789
2.8298,-0.686169,-0.0338988
2.91178,-0.26653,0.016994
2.86794,-0.548646,-0.0169708
2.83369,-0.687112,0.0339454
2.87642,-0.405791,-0.203131
2.84674,-0.544589,-0.236608
2.91458,-0.266786,0.0851771
2.8597,-0.547069,0.0508214
2.89834,-0.408883,0.170464
2.86561,-0.5482,0.118865
2.88033,-0.406341,-0.135499
2.89455,-0.408348,-0.0680214
2.9183,-0.27843,-0.0511705
2.84895,-0.556361,-0.0844789
2.83103,-0.697987,-0.0339454
2.90675,-0.277328,0.0169708
2.86189,-0.558887,-0.0169475
2.83491,-0.698945,0.033992
2.84462,-0.555516,-0.236608
2.91353,-0.277975,0.0851771
2.85758,-0.558045,0.0508214
2.90085,-0.276765,-0.186756
2.8928,-0.419436,0.170231
2.85564,-0.557667,0.11854
2.8827,-0.417971,-0.135685
2.889,-0.418885,-0.0679284
2.91333,-0.288222,-0.0511006
2.87643,-0.42732,0
2.83245,-0.708836,-0.033992
2.90577,-0.287473,0.0169708
2.856,-0.568093,-0.0169243
2.88752,-0.428967,0.0679284
2.83245,-0.708836,0.033992
2.87337,-0.426865,-0.203131
2.84658,-0.566219,-0.236933
2.91254,-0.288144,0.0851771
2.85953,-0.568797,0.0508912
2.89986,-0.286889,-0.186756
2.89132,-0.429531,0.170231
2.8576,-0.568412,0.118702
2.87332,-0.426857,-0.135313
2.8443,-0.565766,-0.151984
2.90341,-0.28724,-0.118865
2.88752,-0.428967,-0.0679284
2.91639,-0.297779,-0.0511705
2.82634,-0.716748,-0.0339454
2.90485,-0.2966,0.0169708
2.85812,-0.577856,-0.0169475
2.89011,-0.438636,0.0680214
2.90765,-0.296886,0.0850607
2.85773,-0.577777,0.0508912
2.89895,-0.295998,-0.186756
2.88995,-0.438612,0.170231
2.8558,-0.577386,0.118702
2.87196,-0.435882,-0.135313
2.89851,-0.295954,-0.118702
2.91533,-0.307957,-0.0511705
2.84709,-0.585978,-0.0845953
2.81994,-0.725612,-0.0338988
2.90777,-0.307159,0.016994
2.88856,-0.448722,0.0680214
2.81994,-0.725612,0.0338988
2.90261,-0.306614,0.0849444
2.8557,-0.587749,0.0508912
2.8979,-0.306116,-0.186756
2.85377,-0.587352,0.118702
2.87437,-0.446517,-0.135499
2.91419,-0.31864,-0.0511705
2.84101,-0.595589,-0.0844789
2.86793,-0.456288,0
2.82501,-0.737965,-0.033992
2.90265,-0.317379,0.0169708
2.85783,-0.599114,-0.0169708
2.90545,-0.317685,0.0850607
2.84961,-0.597391,0.0508214
2.89279,-0.316301,-0.1865
2.88674,-0.459281,0.170231
2.8516,-0.597807,0.118702
2.86877,-0.456422,-0.135313
2.88295,-0.458678,-0.0679284
2.90516,-0.327407,-0.0510308
2.8664,-0.465796,0
2.81868,-0.746305,-0.0339454
2.90158,-0.327003,0.0169708
2.848,-0.60692,-0.0169243
2.9004,-0.32687,0.0849444
2.84762,-0.606838,0.0508214
2.8852,-0.468851,0.170231
2.85351,-0.608093,0.118865
2.8633,-0.465291,-0.135126
2.88141,-0.468236,-0.0679284
2.904,-0.337546,-0.0510308
2.86476,-0.475799,0
2.81992,-0.757177,-0.033992
2.89645,-0.336668,0.0169475
2.84977,-0.617705,-0.0169475
2.87976,-0.478291,0.0679284
2.89924,-0.336993,0.0849444
2.84939,-0.617621,0.0508912
2.87961,-0.478265,0.169998
2.85137,-0.61805,0.118865
2.86165,-0.475283,-0.135126
2.87187,-0.47698,-0.0677423
2.90672,-0.348663,-0.0511006
2.81326,-0.766456,-0.0339454
2.89917,-0.347758,0.0169708
2.8514,-0.629007,-0.0169708
2.89799,-0.347617,0.0849444
2.84711,-0.628061,0.0508912
2.88932,-0.346576,-0.1865
2.83737,-0.625914,0.118377
2.85989,-0.485769,-0.135126
2.88888,-0.346523,-0.11854
2.87405,-0.488173,-0.0678353
2.90151,-0.358317,-0.0510308
2.89794,-0.357876,0.0169708
2.84918,-0.638957,-0.0169708
2.89279,-0.35724,0.084828
2.8449,-0.637995,0.0508912
2.88809,-0.35666,-0.1865
2.88005,-0.499541,0.170231
2.83019,-0.645081,-0.0844789
2.88873,-0.366981,0.0169243
2.84694,-0.648898,-0.0169708
2.89153,-0.367336,0.084828
2.83875,-0.647033,0.0508214
2.88287,-0.366236,-0.186244
2.87828,-0.509591,0.170231
2.85643,-0.505722,-0.135126
2.8275,-0.644469,-0.151984
2.89907,-0.377553,-0.0510308
2.85792,-0.515252,0
2.88757,-0.376054,0.0169243
2.83319,-0.655136,-0.016901
2.89432,-0.376934,0.0849444
2.8406,-0.656849,0.0508912
2.86881,-0.517214,0.169766
2.85715,-0.515112,-0.0675562
2.89774,-0.38767,-0.0510308
2.8902,-0.386662,0.0169475
2.83868,-0.666851,-0.0169475
2.88903,-0.386505,0.084828
2.84218,-0.667675,0.050961
2.88038,-0.385348,-0.186244
2.86699,-0.527225,0.169766
2.85927,-0.525806,-0.0676492
2.89234,-0.397744,-0.050961
2.89273,-0.397797,0.0169708
2.8401,-0.67818,-0.0169708
2.88759,-0.397091,0.084828
2.86896,-0.538466,0.169998
2.88246,-0.396385,-0.11854
2.86125,-0.53702,-0.0677423
2.89482,-0.408901,-0.0510308
2.89125,-0.408397,0.0169708
2.8376,-0.688585,-0.0169708
2.88216,-0.407113,0.0847116
2.83721,-0.688491,0.050961
2.88143,-0.40701,-0.1865
2.87089,-0.549729,0.170231
2.85927,-0.547503,-0.0677423
2.89352,-0.417994,-0.0510308
2.81874,-0.693392,-0.0844789
2.83542,-0.697496,-0.0169708
2.88086,-0.416165,0.0847116
2.82727,-0.695491,0.0508214
2.87618,-0.415489,-0.186244
2.85753,-0.556483,-0.0677423
2.88794,-0.428514,-0.050961
2.81993,-0.70518,-0.0845953
2.8483,-0.566045,0
2.88833,-0.428572,0.0169708
2.82884,-0.707407,-0.0169475
2.84919,-0.566222,-0.203131
2.8832,-0.427811,0.084828
2.8207,-0.705371,0.0507516
2.87457,-0.42653,-0.186244
2.85915,-0.568201,0.169766
2.85537,-0.567451,-0.0677423
2.88247,-0.437991,-0.0508912
2.84631,-0.575984,0
2.87495,-0.436849,0.016901
2.83023,-0.718262,-0.0169708
2.84328,-0.575373,-0.202852
2.88169,-0.437872,0.084828
2.86911,-0.435962,-0.185989
2.86498,-0.579762,0.170231
2.84946,-0.576621,-0.0676492
2.87356,-0.445878,0.016901
2.82796,-0.727149,-0.0169708
2.8803,-0.446923,0.084828
2.86773,-0.444973,-0.185989
2.85532,-0.587151,0.169766
2.85546,-0.587181,-0.0678353
2.88345,-0.457726,-0.050961
2.88384,-0.457788,0.0169708
2.82928,-0.738026,-0.016994
2.87477,-0.456348,0.0847116
2.86571,-0.454909,-0.118214
2.8534,-0.597145,-0.0678353
2.84033,-0.604767,0
2.87433,-0.46657,0.0169243
2.81895,-0.745851,-0.0169475
2.85521,-0.607935,0.0679284
2.87711,-0.467021,0.084828
2.86411,-0.46491,-0.118214
2.87616,-0.477692,-0.0508912
2.8726,-0.477101,0.0169243
2.8162,-0.756178,-0.0169475
2.87143,-0.476907,0.0847116
2.86238,-0.475404,-0.118214
2.84123,-0.615854,-0.0676492
2.87841,-0.488398,-0.050961
2.83593,-0.625076,0
2.86697,-0.486457,0.016901
2.80968,-0.764953,-0.0169243
2.86975,-0.486928,0.0847116
2.86071,-0.485393,-0.118214
2.83907,-0.625768,-0.0676492
2.87669,-0.498442,-0.050961
2.87314,-0.497827,0.0169475
2.87197,-0.497625,0.084828
2.85899,-0.495376,-0.118214
2.83296,-0.6348,-0.0675562
2.8315,-0.644859,0
2.86351,-0.50646,0.016901
2.86628,-0.50695,0.0847116
2.83463,-0.645573,-0.0676492
2.87332,-0.51751,-0.050961
2.8619,-0.515453,0.016901
