2.50827,0.698908,-0.0303134
2.51082,0.689708,-0.0303134
2.51147,0.672006,-0.0302668
2.5179,0.663379,-0.0303134
2.52771,0.657479,-0.0304065
2.50815,0.65239,-0.150929
2.52225,0.646665,-0.0303134
2.51815,0.645615,-0.151394
2.52449,0.637856,-0.0303134
2.52039,0.63682,-0.151394
2.52692,0.628159,-0.0303134
2.52692,0.628159,0.0303134
2.53057,0.629065,-0.151859
2.52499,0.619264,-0.0302668
2.53276,0.621169,0.0303599
2.52089,0.618258,-0.151161
2.52714,0.610446,-0.0302668
2.53103,0.611386,0.0303134
2.52304,0.609455,-0.151161
2.49225,0.722649,-0.075519
2.53325,0.602104,-0.0303134
2.53325,0.602104,0.0303134
2.52914,0.601126,-0.151394
2.50232,0.716583,-0.0757518
2.53523,0.593701,-0.0303134
2.53112,0.592737,-0.151394
2.54119,0.585745,-0.0303599
2.49812,0.705955,-0.0150877
2.54119,0.585745,0.0303599
2.53317,0.583897,-0.151394
2.50726,0.699096,-0.0757518
2.54322,0.576872,-0.0303599
2.54712,0.577757,0.0304065
2.5313,0.574168,-0.151161
2.50488,0.698433,-0.136283
2.55312,0.569288,-0.0304531
2.54224,0.566862,-0.243142
2.55312,0.569288,0.0304531
2.53728,0.565756,-0.151394
2.50424,0.679918,-0.075519
2.54709,0.559547,-0.0303599
2.51684,0.683339,-0.0151575
2.54401,0.558872,-0.243142
2.53905,0.557782,-0.151394
2.54511,0.549809,-0.0303134
2.51148,0.67248,-0.015111
2.54206,0.549148,-0.24277
2.54902,0.550653,0.0303599
2.53708,0.548073,-0.151161
2.50422,0.670537,-0.135864
2.50893,0.662419,-0.075519
2.55093,0.541752,-0.0303599
2.52155,0.665751,-0.0151575
2.54785,0.541098,-0.243142
2.55484,0.542583,0.0304065
2.53898,0.539213,-0.151161
2.50655,0.661791,-0.135864
2.51134,0.653219,-0.075519
2.55681,0.533216,-0.0304065
2.51623,0.654491,-0.015111
2.56073,0.534032,0.0304531
2.54094,0.529904,-0.151161
2.51282,0.653606,-0.136073
2.55465,0.523931,-0.0303599
2.52613,0.648132,-0.0151575
2.55547,0.524099,-0.243513
2.5664,0.526341,0.0304996
2.54659,0.522278,-0.151394
2.52272,0.647255,-0.136492
2.5196,0.63709,-0.0756354
2.55646,0.515009,-0.0303599
2.5245,0.638329,-0.0151342
2.55728,0.515175,-0.243513
2.53967,0.642164,0.0457253
2.55231,0.514173,-0.151627
2.51334,0.635507,-0.135864
2.52192,0.62785,-0.0756354
2.52683,0.629072,-0.0151342
2.55525,0.505025,-0.243142
2.56226,0.506411,0.0304065
2.53813,0.631885,0.0456555
2.5581,0.505589,-0.151859
2.52728,0.629185,-0.136492
2.52787,0.620437,-0.0757518
2.56392,0.497912,-0.0304065
2.53278,0.621643,-0.0151575
2.56785,0.498675,0.0304531
2.53633,0.622512,0.0455857
2.55584,0.496342,-0.151627
2.52548,0.619849,-0.136283
2.52614,0.610671,-0.0756354
2.53105,0.611859,-0.0151342
2.56957,0.489708,0.0304531
2.53848,0.613655,0.0455857
2.53151,0.611969,-0.136492
2.48983,0.732326,-0.0603911
2.52836,0.601407,-0.0756354
2.57135,0.480287,-0.0304531
2.53717,0.603503,-0.0151575
2.56823,0.479703,-0.243885
2.57528,0.481021,0.0304996
2.53268,0.602435,-0.212524
2.54072,0.604347,0.0455857
2.55933,0.47804,-0.151627
2.52596,0.600837,-0.136073
2.50786,0.727652,-0.0607633
2.53044,0.592578,-0.0756354
2.57695,0.472029,-0.0304996
2.53926,0.594643,-0.0151575
2.57301,0.471309,0.0304531
2.5506,0.597298,0.0457253
2.56884,0.470543,-0.152092
2.55276,0.597806,0.106816
2.53582,0.593838,-0.136492
2.49501,0.714491,-0.0603911
2.54018,0.585982,-0.0758681
2.57456,0.462774,-0.0304531
2.53732,0.585321,-0.0151342
2.5785,0.463482,0.0304996
2.54867,0.587939,0.0456555
2.57038,0.462023,-0.152092
2.54167,0.586324,-0.136702
2.50121,0.707302,-0.0604842
2.53831,0.576226,-0.0757518
2.57616,0.453784,-0.0304531
2.55105,0.579116,-0.015204
2.57695,0.453923,-0.244257
2.5801,0.454477,0.0304996
2.5468,0.578153,0.0455857
2.56805,0.452354,-0.151859
2.5476,0.578332,-0.136911
2.49982,0.697491,-0.0603911
2.54021,0.567804,-0.0757518
2.58159,0.445918,-0.0304996
2.54905,0.56978,-0.0151807
2.57844,0.445374,-0.244257
2.58554,0.446599,0.0305462
2.54453,0.56877,-0.212849
2.55261,0.570576,0.0456555
2.5417,0.568138,-0.136492
2.53827,0.558076,-0.0756354
2.58708,0.437572,-0.0305462
2.54712,0.560021,-0.0151575
2.57998,0.436371,-0.244257
2.59102,0.438239,0.0305928
2.55459,0.561662,0.0456555
2.57894,0.436195,-0.152324
2.50633,0.680954,-0.120981
2.55147,0.560978,-0.136911
2.50836,0.681508,-0.0604842
2.54812,0.550457,-0.0758681
2.51152,0.672491,0
2.58866,0.428086,-0.0305462
2.54524,0.549836,-0.0151342
2.57763,0.426262,-0.243885
2.58866,0.428086,0.0305462
2.55663,0.552295,0.0456555
2.58446,0.427391,-0.152557
2.51266,0.672796,-0.121167
2.54961,0.550779,-0.136702
2.50698,0.671274,-0.0603911
2.55394,0.54239,-0.0759845
2.51772,0.664741,0
2.58619,0.418409,-0.0304996
2.55497,0.54261,-0.0151807
2.58697,0.418534,-0.244629
2.59014,0.419048,0.0305462
2.55854,0.543368,0.0456555
2.58594,0.418367,-0.152557
2.51886,0.665041,-0.121353
2.55151,0.541876,-0.136702
2.51704,0.664562,-0.0605772
2.55963,0.534736,-0.0761008
2.52766,0.658406,0
2.56067,0.534953,-0.015204
2.58834,0.409954,-0.244629
2.59152,0.410457,0.0305462
2.55641,0.534063,0.0455857
2.58337,0.409166,-0.152324
2.52105,0.656685,-0.121353
2.55721,0.534229,-0.136911
2.51536,0.655204,-0.0604842
2.55757,0.524993,-0.0759845
2.52994,0.649578,0
2.59294,0.401408,-0.0305462
2.55861,0.525207,-0.0151807
2.59689,0.402019,0.0305928
2.5661,0.526744,0.0457253
2.58083,0.399534,-0.152092
2.51946,0.646887,-0.121167
2.55906,0.525299,-0.136911
2.51376,0.645424,-0.0603911
2.55164,0.514037,-0.0757518
2.5323,0.640302,0
2.59439,0.391902,-0.0305462
2.56444,0.516616,-0.015204
2.58727,0.390827,-0.244257
2.59834,0.392499,0.0305928
2.56801,0.517336,0.0457253
2.59018,0.391265,-0.152557
2.52569,0.638628,-0.121353
2.51611,0.636207,-0.0603911
2.55725,0.506349,-0.0758681
2.52277,0.628997,0
2.59963,0.38388,-0.0305928
2.57006,0.508885,-0.0152272
2.59249,0.382826,-0.244629
2.59963,0.38388,0.0305928
2.5205,0.62843,-0.181646
2.57363,0.509593,0.0457951
2.59146,0.382673,-0.152557
2.52391,0.629282,-0.121167
2.56658,0.508196,-0.13712
2.51821,0.627859,-0.0603911
2.56293,0.498183,-0.0759845
2.52883,0.621141,0
2.57182,0.499911,-0.0152272
2.59381,0.373775,-0.244629
2.60491,0.375374,0.0306393
2.53042,0.621532,-0.182204
2.5754,0.500607,0.0457951
2.59278,0.373626,-0.152557
2.53386,0.622375,-0.121539
2.56442,0.498473,-0.136911
2.52427,0.620019,-0.0604842
2.5725,0.490732,-0.0762172
2.53487,0.613252,0
2.61017,0.366836,-0.0306859
2.57355,0.490932,-0.0152272
2.59905,0.365273,-0.245001
2.54196,0.614966,0.0608564
2.61017,0.366836,0.0306859
2.53258,0.612696,-0.182204
2.5732,0.490865,0.0457253
2.59407,0.364573,-0.152557
2.53601,0.613527,-0.121539
2.56614,0.489519,-0.136911
2.48831,0.732352,-0.105676
2.5303,0.612145,-0.0605772
2.56634,0.480278,-0.0759845
2.54089,0.605326,0
2.60747,0.357179,-0.0306393
2.55858,0.478825,-0.331328
2.57132,0.481209,-0.015204
2.60425,0.356738,-0.245372
2.54798,0.607015,0.0609494
2.61143,0.357722,0.0306859
2.53082,0.602926,-0.181925
2.57883,0.482615,0.0457951
2.59928,0.356057,-0.152789
2.57708,0.482288,0.106816
2.57176,0.481292,-0.13712
2.52853,0.602382,-0.0604842
2.53909,0.59554,0
2.61267,0.348605,-0.0306859
2.56414,0.470608,-0.331833
2.57298,0.472231,-0.015204
2.60548,0.347646,-0.245372
2.54619,0.597205,0.0608564
2.61267,0.348605,0.0306859
2.58443,0.474333,0.0458649
2.60051,0.346983,-0.152789
2.53634,0.594895,-0.121353
2.53451,0.594465,-0.0605772
2.51293,0.711088,-0.0455857
2.5775,0.463766,-0.0762172
2.54505,0.587572,0
2.61783,0.339997,-0.0307325
2.58642,0.465371,-0.0152737
2.60668,0.338549,-0.245372
2.54047,0.586514,0.0606703
2.61783,0.339997,0.0307325
2.53108,0.584346,-0.181646
2.59394,0.466724,0.0460045
2.60962,0.338931,-0.153254
2.5423,0.586936,-0.121539
2.57506,0.463326,-0.13712
2.49969,0.707342,-0.105839
2.54047,0.586514,-0.0606703
2.51515,0.70319,-0.0455857
2.57501,0.454971,-0.0761008
2.54689,0.579574,0
2.61095,0.330767,-0.0306393
2.57999,0.455852,-0.0152272
2.61168,0.330859,-0.245744
2.5462,0.579417,0.0607633
2.61889,0.331772,0.0307325
2.54068,0.578162,-0.182204
2.59146,0.457878,0.0459347
2.61068,0.330731,-0.153254
2.54023,0.57806,-0.121353
2.58044,0.45593,-0.13733
2.4942,0.697334,-0.105513
2.5423,0.57853,-0.0606703
2.51759,0.694406,-0.0455857
2.58446,0.447343,-0.0763336
2.5489,0.57068,0
2.624,0.323117,-0.030779
2.58945,0.448207,-0.0152737
2.61677,0.322226,-0.246116
2.55601,0.572273,0.0609494
2.624,0.323117,0.030779
2.53879,0.568418,-0.181925
2.58091,0.446728,-0.213826
2.58516,0.447464,0.0457951
2.61578,0.322104,-0.153487
2.58735,0.447843,0.106979
2.54613,0.570062,-0.121539
2.58201,0.446919,-0.13733
2.49662,0.688622,-0.105513
2.5443,0.569652,-0.0606703
2.51614,0.684564,-0.0455159
2.58206,0.437651,-0.0762172
2.55478,0.56264,0
2.62114,0.313481,-0.0307325
2.57422,0.436321,-0.332338
2.58311,0.437829,-0.0152272
2.61788,0.313091,-0.246116
2.55409,0.562488,0.0608564
2.62511,0.313956,0.030779
2.53297,0.557836,-0.181367
2.59065,0.439106,0.0458649
2.61689,0.312972,-0.153487
2.5889,0.438809,0.106979
2.54811,0.561171,-0.121539
2.50287,0.680953,-0.105676
2.54628,0.560767,-0.0606703
2.51851,0.675777,-0.0455159
2.58358,0.428636,-0.0762172
2.55673,0.553719,0
2.63017,0.305252,-0.0308256
2.58857,0.429465,-0.0152505
2.615,0.303492,-0.245744
2.55213,0.552723,0.0607633
2.62619,0.304791,0.030779
2.5427,0.550681,-0.181925
2.60006,0.43137,0.0460045
2.614,0.303375,-0.153254
2.54615,0.551428,-0.121353
2.50909,0.673249,-0.105839
2.54822,0.551876,-0.0606703
2.52473,0.668004,-0.0455857
2.58506,0.419614,-0.0762172
2.55082,0.543124,0
2.63519,0.296516,-0.0308722
2.51733,0.666049,0.0151342
2.59795,0.421707,-0.015297
2.61605,0.294362,-0.245744
2.62724,0.295621,0.030779
2.54851,0.542632,-0.182204
2.58938,0.420316,-0.214151
2.6055,0.422932,0.0460744
2.62694,0.295588,-0.153952
2.57384,0.548027,0.153254
2.55587,0.5442,-0.121725
2.59444,0.421136,-0.137748
2.51143,0.664485,-0.105839
2.55013,0.542977,-0.0606703
2.52704,0.659188,-0.0455857
2.6023,0.413096,-0.0766826
2.5527,0.534218,0
2.62826,0.286449,-0.030779
2.51964,0.657258,0.0151342
2.59941,0.412637,-0.015297
2.5497,0.533589,-0.280594
2.62498,0.286092,-0.246488
2.55984,0.535711,0.0608564
2.63621,0.287316,0.0308722
2.55039,0.533734,-0.182204
2.5869,0.410651,-0.213826
2.61091,0.414462,0.0461442
2.51453,0.655923,-0.166545
2.62796,0.286417,-0.153952
2.55776,0.535276,-0.121725
2.588,0.410826,-0.13733
2.50986,0.654707,-0.105676
2.55984,0.535711,-0.0608564
2.52933,0.650362,-0.0455857
2.59187,0.40217,-0.0763336
2.56239,0.526914,0
2.63322,0.277692,-0.0308256
2.58398,0.400945,-0.332843
2.52192,0.648458,0.0151342
2.60083,0.40356,-0.015297
2.55154,0.524685,-0.280594
2.62992,0.277344,-0.246859
2.56561,0.527577,0.0609494
2.6372,0.278111,0.0308722
2.55614,0.525631,-0.182483
2.58831,0.401617,-0.213826
2.60443,0.404119,0.0460045
2.51293,0.646147,-0.16629
2.62497,0.276822,-0.15372
2.55961,0.526344,-0.121725
2.59336,0.402401,-0.137539
2.51987,0.647931,-0.106002
2.56169,0.526772,-0.0608564
2.52782,0.640106,-0.0455159
2.59728,0.393267,-0.0764499
2.56822,0.518311,0
2.63422,0.268039,-0.0308256
2.58543,0.391472,-0.332843
2.52816,0.640193,0.0151575
2.60229,0.394025,-0.015297
2.54565,0.513757,-0.279738
2.62696,0.2673,-0.246488
2.56752,0.518171,0.0609494
2.64218,0.268849,0.0309187
2.59765,0.393322,-0.214477
2.60985,0.395169,0.0460744
2.51142,0.635953,-0.166034
2.622,0.266796,-0.153487
2.60413,0.394304,0.107304
2.60272,0.39409,-0.137958
2.51836,0.637711,-0.105839
2.52605,0.63075,-0.0454461
2.59857,0.384651,-0.0764499
2.57385,0.510569,0
2.63907,0.259694,-0.0308722
2.59064,0.383477,-0.333348
2.52639,0.630836,0.0151342
2.60359,0.385393,-0.015297
2.55124,0.506085,-0.280166
2.63179,0.258977,-0.246859
2.56531,0.508875,0.0608564
2.63907,0.259694,0.0308722
2.55975,0.507773,-0.182483
2.61115,0.386512,0.0460744
2.51738,0.628588,-0.16629
2.63479,0.259272,-0.154185
2.56714,0.509239,-0.121912
2.60006,0.384871,-0.137748
2.52434,0.630324,-0.106002
2.55746,0.507319,-0.0606703
2.53212,0.622884,-0.0455159
2.60386,0.376149,-0.0765663
2.56776,0.500052,0
2.63598,0.250101,-0.0308256
2.53246,0.622968,0.0151575
2.60888,0.376874,-0.0153202
2.5608,0.498696,-0.281023
2.62475,0.249036,-0.246116
2.57099,0.500681,0.0609494
2.64395,0.250857,0.0309187
2.56151,0.498834,-0.182483
2.61644,0.377966,0.0461442
2.52344,0.62075,-0.166545
2.63965,0.25045,-0.154417
2.5689,0.500274,-0.121912
2.59744,0.375221,-0.137539
2.52264,0.620553,-0.105839
2.56707,0.499917,-0.0608564
2.54205,0.615927,-0.0456555
2.60911,0.367617,-0.0766826
2.57735,0.492589,0
2.64481,0.241628,-0.0309187
2.53462,0.614126,0.0151575
2.61414,0.368324,-0.0153435
2.56253,0.489756,-0.281023
2.6375,0.240961,-0.247231
2.57665,0.492456,0.0610425
2.64879,0.241992,0.0309653
2.56323,0.489891,-0.182483
2.60156,0.366553,-0.214477
2.61378,0.368275,0.0460744
2.52559,0.611939,-0.166545
2.64051,0.241236,-0.154417
2.57691,0.492506,0.152789
2.57063,0.491306,-0.121912
2.60269,0.366711,-0.137748
2.52479,0.611745,-0.105839
2.5688,0.490955,-0.0608564
2.54408,0.607493,-0.0456555
2.61032,0.358962,-0.0766826
2.57897,0.484039,0
2.65356,0.233557,-0.0310118
2.54053,0.606646,0.0151807
2.61138,0.359108,-0.0153202
2.63829,0.232213,-0.247231
2.5822,0.484646,0.0611355
2.64559,0.232856,0.0309187
2.56877,0.482124,-0.182762
2.61895,0.360149,0.0461442
2.52761,0.60356,-0.166545
2.64527,0.232828,-0.15465
2.57853,0.483957,0.152789
2.57225,0.482778,-0.121912
2.60389,0.358078,-0.137748
2.53069,0.604297,-0.106002
2.56648,0.481695,-0.0607633
2.5384,0.596777,-0.0455159
2.61948,0.350909,-0.0769154
2.58064,0.475033,0
2.65037,0.223955,-0.0309653
2.53485,0.595943,0.0151342
2.61262,0.34999,-0.0153202
2.5658,0.472301,-0.281023
2.63908,0.223001,-0.247231
2.57995,0.474905,0.0610425
2.65436,0.224292,0.0310118
2.57043,0.473154,-0.182762
2.62019,0.351004,0.0461442
2.52581,0.593819,-0.16629
2.63811,0.222919,-0.154185
2.61842,0.350767,0.10763
2.53279,0.595459,-0.106002
2.56815,0.472733,-0.0607633
2.53657,0.587012,-0.0454461
2.61673,0.341247,-0.076799
2.59016,0.467443,0
2.6631,0.215672,-0.031105
2.60475,0.339685,-0.334358
2.54081,0.587993,0.0151575
2.61779,0.341386,-0.0153435
2.56352,0.462636,-0.280594
2.63984,0.213788,-0.247231
2.58159,0.465897,0.0610425
2.65911,0.215349,0.0310584
2.576,0.464887,-0.183041
2.61311,0.340775,-0.215128
2.62537,0.342374,0.046214
2.53176,0.585899,-0.166545
2.63887,0.21371,-0.154185
2.53485,0.586614,-0.106002
2.56978,0.463766,-0.0607633
2.5503,0.580819,-0.0456555
2.61393,0.331608,-0.0766826
2.5839,0.457007,0
2.66384,0.206375,-0.031105
2.54284,0.579121,0.0151575
2.62293,0.33275,-0.0153667
2.56904,0.454378,-0.281023
2.64454,0.20488,-0.247603
2.65586,0.205757,0.0310118
2.56581,0.453808,-0.182204
2.63051,0.333711,0.0462838
2.53379,0.577059,-0.166545
2.64359,0.204806,-0.154417
2.58739,0.457624,0.153022
2.5811,0.456512,-0.122098
2.61146,0.331294,-0.137958
2.6301,0.333659,0.21643
2.53688,0.577763,-0.106002
2.57532,0.45549,-0.0608564
2.55241,0.571467,-0.0456555
2.62307,0.323002,-0.0769154
2.58555,0.447532,0
2.6566,0.196021,-0.0310118
2.54495,0.569796,0.0151575
2.62811,0.323622,-0.0153899
2.5746,0.445637,-0.281451
2.64528,0.195185,-0.247603
2.58879,0.448093,0.0611355
2.66458,0.196609,0.031105
2.57926,0.446442,-0.183041
2.61548,0.322067,-0.215128
2.62775,0.323578,0.046214
2.54368,0.569512,-0.167057
2.6483,0.195409,-0.15465
2.58905,0.448138,0.153022
2.58669,0.447729,-0.122284
2.61662,0.322208,-0.138167
2.53898,0.568461,-0.106002
2.58091,0.446729,-0.0609494
2.55429,0.563,-0.0456555
2.62413,0.314302,-0.0769154
2.58702,0.438956,0
2.66122,0.187492,-0.0310584
2.6121,0.312862,-0.334863
2.62916,0.314906,-0.0153899
2.57607,0.437097,-0.281451
2.65386,0.186973,-0.248347
2.59421,0.440176,0.0612286
2.66521,0.187773,0.031105
2.58466,0.438555,-0.18332
2.62049,0.313867,-0.215453
2.63675,0.315814,0.0463536
2.53776,0.559355,-0.166545
2.6569,0.187187,-0.155115
2.58816,0.439149,-0.122284
2.62561,0.314479,-0.138586
2.54085,0.560038,-0.106002
2.58238,0.438169,-0.0609494
2.55233,0.553233,-0.0455857
2.62918,0.305601,-0.0770317
2.59249,0.430578,0
2.66186,0.1782,-0.0310584
2.55659,0.554155,0.015204
2.63422,0.306187,-0.0154132
2.57758,0.428102,-0.281451
2.65449,0.177707,-0.248347
2.59967,0.431772,0.0613216
2.67383,0.179002,0.0311981
2.58617,0.429529,-0.18332
2.55164,0.553083,0.0759845
2.63386,0.306146,0.0462838
2.53969,0.550493,-0.166545
2.65355,0.177644,-0.154882
2.58574,0.429457,-0.122098
2.63741,0.306558,0.216755
2.5467,0.552012,-0.106165
2.55425,0.544321,-0.0455857
2.63023,0.296423,-0.0770317
2.59792,0.422168,0
2.67045,0.169415,-0.0311515
2.61422,0.294619,-0.334863
2.55459,0.544394,0.0151807
2.6313,0.296543,-0.0153899
2.57905,0.419102,-0.281451
2.65112,0.168189,-0.247975
2.60117,0.422695,0.0613216
2.67444,0.169668,0.0311981
2.59159,0.42114,-0.183599
2.55747,0.545006,0.0761008
2.63492,0.296951,0.0462838
2.54941,0.543289,-0.167057
2.66213,0.168887,-0.155347
2.59116,0.42107,-0.122284
2.64243,0.297797,0.21708
2.55643,0.544785,-0.10649
2.58538,0.42013,-0.0609494
2.55222,0.534581,-0.0455159
2.62727,0.286805,-0.0769154
2.60074,0.283908,-0.523241
2.59543,0.412469,0
2.67901,0.16057,-0.0312447
2.57239,0.408806,-0.405226
2.56039,0.536293,0.015204
2.63629,0.28779,-0.0154132
2.5805,0.410096,-0.281451
2.65964,0.159409,-0.248718
2.59868,0.412985,0.0612286
2.66703,0.159852,0.031105
2.58517,0.410838,-0.183041
2.55935,0.536075,0.0761008
2.63991,0.288185,0.0463536
2.55129,0.534386,-0.167057
2.65473,0.159115,-0.154882
2.59656,0.412649,-0.12247
2.62875,0.286967,-0.138586
2.55049,0.534219,-0.106165
2.58683,0.411102,-0.0609494
2.56582,0.528086,-0.0457253
2.64019,0.278892,-0.0772645
2.60081,0.40402,0
2.67556,0.150991,-0.0311981
2.5777,0.400431,-0.40584
2.56225,0.527352,0.015204
2.64126,0.279005,-0.0154364
2.58192,0.401085,-0.281451
2.65621,0.149899,-0.248347
2.6001,0.40391,0.0612286
2.67556,0.150991,0.0311981
2.59447,0.403035,-0.183599
2.62858,0.277666,-0.215779
2.64488,0.279387,0.0464234
2.55314,0.525476,-0.167057
2.66723,0.150521,-0.15558
2.61219,0.405788,0.153952
2.63912,0.278778,0.108119
2.59799,0.403582,-0.12247
2.63371,0.278208,-0.138795
2.5922,0.402683,-0.0610425
2.56765,0.519129,-0.0457253
2.64114,0.269676,-0.0772645
2.6022,0.39494,0
2.68007,0.141864,-0.0312447
2.57908,0.391432,-0.40584
2.61717,0.267227,-0.334863
2.56015,0.517614,0.0151807
2.64222,0.269785,-0.0154364
2.58723,0.392669,-0.281879
2.66467,0.141049,-0.24909
2.6094,0.396034,0.0614147
2.68007,0.141864,0.0312447
2.58797,0.392781,-0.183041
2.6335,0.268895,-0.216104
2.56303,0.518196,0.0761008
2.64584,0.270155,0.0464234
2.55496,0.516563,-0.167057
2.66375,0.141001,-0.155347
2.60569,0.395471,0.153487
2.64405,0.269972,0.108281
2.63864,0.26942,-0.139004
2.61813,0.397358,0.325147
2.64937,0.270515,0.217406
2.55416,0.516401,-0.106165
2.59754,0.394233,-0.0611355
2.56552,0.509383,-0.0456555
2.61148,0.387027,0
2.68853,0.132903,-0.0313378
2.58434,0.383006,-0.406455
2.62598,0.258868,-0.335873
2.56195,0.508673,0.0151807
2.64314,0.26056,-0.0154364
2.58859,0.383635,-0.281879
2.6731,0.13214,-0.249834
2.61473,0.387508,0.0615077
2.68454,0.132705,0.0312912
2.56483,0.509245,0.0761008
2.65075,0.261309,0.0464932
2.55674,0.50764,-0.167057
2.6722,0.132095,-0.155813
2.64895,0.261133,0.108444
2.6047,0.386022,-0.122656
2.64354,0.260599,-0.139214
2.55987,0.50826,-0.106327
2.56728,0.500425,-0.0456555
2.64694,0.251609,-0.0773808
2.61677,0.378482,0
2.68898,0.123518,-0.0313378
2.58567,0.373983,-0.406455
2.56763,0.500493,0.015204
2.64404,0.251333,-0.0154364
2.58991,0.374597,-0.281879
2.66161,0.12226,-0.248718
2.60815,0.377235,0.0613216
2.69298,0.123701,0.0313844
2.6025,0.376417,-0.183878
2.63928,0.250881,-0.21643
2.57051,0.501055,0.0762172
2.65562,0.252434,0.046563
2.5585,0.498713,-0.167057
2.67265,0.122767,-0.155813
2.61234,0.377842,0.15372
2.64587,0.251507,0.108281
2.60603,0.376928,-0.122656
2.65913,0.252767,0.218057
2.56947,0.500851,-0.106653
2.59627,0.375517,-0.0610425
2.57294,0.492212,-0.0457253
2.63586,0.241274,-0.0770317
2.61311,0.239191,-0.52481
2.61412,0.368786,0
2.6894,0.11413,-0.0313378
2.58696,0.364954,-0.406455
2.56936,0.491527,0.015204
2.64888,0.242466,-0.0154597
2.58727,0.364998,-0.281451
2.66998,0.113306,-0.249462
2.61341,0.368686,0.0614147
2.6894,0.11413,0.0313378
2.59985,0.366773,-0.183599
2.57225,0.492078,0.0762172
2.56807,0.491279,-0.167569
2.67306,0.113437,-0.155813
2.6176,0.369278,0.153952
2.65071,0.242633,0.108444
2.61128,0.368386,-0.122842
2.6453,0.242137,-0.139214
2.62608,0.370474,0.325635
2.56335,0.490377,-0.106327
2.60153,0.36701,-0.0611355
2.58251,0.484702,-0.0458649
2.64863,0.233122,-0.0773808
2.61784,0.230411,-0.525594
2.61142,0.359113,0
2.68978,0.104741,-0.0313378
2.59213,0.35646,-0.40707
2.57499,0.483292,0.0152272
2.65768,0.233918,-0.0155062
2.60034,0.357589,-0.282736
2.67036,0.103984,-0.249462
2.61468,0.359561,0.0614147
2.69378,0.104896,0.0313844
2.59716,0.357151,-0.18332
2.64097,0.232448,-0.21643
2.65732,0.233887,0.046563
2.56192,0.480838,-0.167057
2.68541,0.104571,-0.15651
2.6086,0.358724,-0.122656
2.6501,0.233252,-0.139423
2.66083,0.234195,0.218057
2.58418,0.475686,-0.0458649
2.65342,0.224214,-0.0774972
2.61663,0.350528,0
2.69413,0.0954944,-0.0313844
2.58944,0.346886,-0.406455
2.63725,0.222848,-0.336884
2.65848,0.224642,-0.0155062
2.59763,0.347984,-0.282308
2.67468,0.0948054,-0.249834
2.61988,0.350964,0.0615077
2.70212,0.0957778,0.0314775
2.6063,0.349144,-0.183878
2.64574,0.223565,-0.216755
2.57562,0.47411,0.0762172
2.65812,0.224611,0.046563
2.55966,0.471171,-0.166801
2.68576,0.0951979,-0.15651
2.62012,0.350996,0.153952
2.66031,0.224796,0.10877
2.61775,0.350679,-0.123028
2.63254,0.35266,0.326122
2.6656,0.225244,0.218382
2.56671,0.47247,-0.106327
2.70167,0.228292,0.494341
2.61195,0.349902,-0.0613216
2.57394,0.464981,-0.0456555
2.65415,0.215413,-0.0774972
2.62174,0.342366,0
2.69443,0.0865592,-0.0313844
2.59058,0.338297,-0.406455
2.57429,0.465044,0.015204
2.65124,0.215177,-0.0154597
2.59089,0.338337,-0.281451
2.68693,0.0863182,-0.250949
2.69843,0.0866876,0.0314309
2.6114,0.341016,-0.184157
2.65044,0.215112,-0.21708
2.58111,0.466276,0.0763336
2.66682,0.216442,0.0467026
2.56906,0.464099,-0.167313
2.68207,0.0861622,-0.156278
2.66502,0.216295,0.108933
2.6189,0.341996,-0.123028
2.65561,0.215532,-0.139632
2.6455,0.345469,0.327585
2.66633,0.216402,0.218382
2.5722,0.464666,-0.10649
2.69457,0.218694,0.492906
2.5835,0.456937,-0.0457951
2.65492,0.205684,-0.0774972
2.62695,0.333259,0
2.70272,0.0769112,-0.0314775
2.59572,0.329298,-0.40707
2.64269,0.204737,-0.337389
2.65998,0.206077,-0.0155062
2.60395,0.330341,-0.282736
2.67926,0.0762436,-0.250205
2.62227,0.332665,0.0615077
2.70672,0.0770249,0.0315241
2.61659,0.331945,-0.184436
2.58674,0.45751,0.0764499
2.66361,0.206358,0.0466328
2.57468,0.455376,-0.167569
2.69035,0.0765591,-0.156743
2.62646,0.333198,0.154185
2.66181,0.206218,0.10877
2.63887,0.334772,0.32661
2.57388,0.455236,-0.10649
2.7032,0.209425,0.494341
2.61037,0.331156,-0.0612286
2.58516,0.447464,-0.0457951
2.66363,0.19654,-0.0777299
2.62474,0.193671,-0.526379
2.62418,0.323139,0
2.70698,0.0671031,-0.0315241
2.59691,0.319781,-0.40707
2.58551,0.447525,0.0152505
2.66471,0.19662,-0.0155294
2.60514,0.320794,-0.282736
2.67952,0.0664224,-0.250205
2.62744,0.32354,0.0616008
2.69899,0.0669048,0.0314309
2.60987,0.321376,-0.183878
2.65592,0.195971,-0.217406
2.5884,0.448025,0.0764499
2.67233,0.197182,0.0467725
2.57633,0.445935,-0.167569
2.69461,0.0667962,-0.156975
2.63163,0.324056,0.154417
2.61737,0.322301,-0.122842
2.64915,0.195472,-0.139214
2.64008,0.325097,0.32661
2.67978,0.197731,0.219359
2.57947,0.44648,-0.106653
2.70395,0.199515,0.494341
2.61156,0.321585,-0.0612286
2.59444,0.440679,-0.0459347
2.66024,0.187888,-0.0776135
2.62925,0.185699,-0.527163
2.62915,0.315369,0
2.70318,0.0585112,-0.0314775
2.5979,0.31162,-0.40707
2.5869,0.439399,0.0152505
2.6733,0.18881,-0.0155759
2.60613,0.312608,-0.282736
2.6837,0.0580895,-0.250577
2.63638,0.316236,0.0617869
2.70718,0.0585977,0.0315241
2.61483,0.31365,-0.184157
2.65652,0.187626,-0.217406
2.66894,0.188503,0.0467026
2.57772,0.437839,-0.167569
2.70279,0.0585026,-0.15744
2.6366,0.316262,0.15465
2.66714,0.188375,0.108933
2.62631,0.315027,-0.123214
2.65772,0.18771,-0.139632
2.64503,0.317274,0.327097
2.57298,0.437035,-0.106327
2.70457,0.191019,0.494341
2.61653,0.313855,-0.0613216
2.59596,0.431622,-0.0459347
2.66487,0.178871,-0.0777299
2.6338,0.176785,-0.527948
2.63421,0.306654,0
2.70337,0.0490768,-0.0314775
2.59112,0.301638,-0.40584
2.64862,0.17778,-0.337894
2.66995,0.179211,-0.0155527
2.61116,0.30397,-0.283165
2.68787,0.0487954,-0.250949
2.63747,0.307033,0.0617869
2.70737,0.0491494,0.0315241
2.6159,0.304523,-0.184157
2.66114,0.17862,-0.217731
2.6656,0.178919,0.0466328
2.57923,0.42884,-0.167569
2.69499,0.0489246,-0.156975
2.64165,0.30752,0.154882
2.67177,0.179333,0.109096
2.62739,0.30586,-0.123214
2.65836,0.178434,-0.139632
2.65401,0.308959,0.328072
2.67705,0.179688,0.219033
2.70914,0.181842,0.495058
2.61761,0.304721,-0.0613216
2.59745,0.422557,-0.0459347
2.66947,0.169821,-0.0778463
2.63831,0.167838,-0.528732
2.63527,0.297456,0
2.70753,0.0396979,-0.0315241
2.60001,0.293477,-0.40707
2.64923,0.168533,-0.337894
2.59386,0.421972,0.0152737
2.66656,0.169636,-0.0155294
2.60825,0.294407,-0.282736
2.68802,0.039412,-0.250949
2.6425,0.298273,0.06188
2.71552,0.0398152,0.0316172
2.62092,0.295836,-0.184436
2.65777,0.169076,-0.217406
2.5928,0.421801,0.0764499
2.67818,0.170375,0.0468423
2.58071,0.419833,-0.167569
2.69914,0.0395749,-0.157208
2.63478,0.297401,0.154417
2.67637,0.170259,0.109258
2.62844,0.296686,-0.123214
2.67093,0.169913,-0.14026
2.65507,0.299692,0.328072
2.68164,0.170595,0.219359
2.57992,0.419704,-0.10649
2.70191,0.171884,0.493623
2.61866,0.295581,-0.0613216
2.59891,0.413487,-0.0459347
2.66606,0.160261,-0.0777299
2.64424,0.289124,0
2.71965,0.0303799,-0.0316637
2.60102,0.284399,-0.40707
2.65772,0.15976,-0.338904
2.59926,0.413543,0.015297
2.67513,0.160806,-0.0155759
2.61322,0.285732,-0.283165
2.68814,0.0300281,-0.250949
2.63557,0.288177,0.0616939
2.71565,0.0303353,0.0316172
2.6259,0.287119,-0.184715
2.6663,0.160276,-0.218057
2.59821,0.413375,0.0765663
2.68275,0.161264,0.0469121
2.58216,0.410822,-0.167569
2.69926,0.0301522,-0.157208
2.64374,0.289069,0.154882
2.67295,0.160675,0.109096
2.63343,0.287943,-0.123401
2.66752,0.160349,-0.140051
2.66005,0.290853,0.32856
2.6862,0.161472,0.219684
2.58926,0.411952,-0.106816
2.71427,0.163159,0.495776
2.60034,0.404413,-0.0459347
2.67059,0.15118,-0.0778463
2.63942,0.149415,-0.528732
2.6333,0.27863,0
2.71574,0.0208563,-0.0316172
2.602,0.275318,-0.40707
2.59674,0.403853,0.0152737
2.67567,0.151468,-0.0155759
2.61816,0.277028,-0.283593
2.68823,0.0206451,-0.250949
2.64054,0.279396,0.0617869
2.72374,0.0209177,0.0317103
2.62292,0.277532,-0.184436
2.60359,0.404918,0.0766826
2.68329,0.151899,0.0469121
2.59147,0.403033,-0.16808
2.70733,0.0207918,-0.157673
2.65267,0.28068,0.155347
2.68148,0.151796,0.109421
2.6384,0.279169,-0.123587
2.66806,0.151037,-0.140051
2.66105,0.281567,0.32856
2.69073,0.15232,0.22001
2.59463,0.403526,-0.106979
2.7109,0.153462,0.495058
2.60569,0.395934,-0.0460045
2.6711,0.141856,-0.0778463
2.64384,0.140409,-0.529517
2.64222,0.27025,0
2.71579,0.0113757,-0.0316172
2.59813,0.394786,0.0152737
2.68018,0.142338,-0.0155992
2.61515,0.267482,-0.283165
2.69227,0.0112772,-0.251321
2.65343,0.271398,0.0620661
2.72779,0.011426,0.0317569
2.62784,0.26878,-0.184715
2.66736,0.141657,-0.218057
2.60103,0.395226,0.0765663
2.6878,0.142743,0.0469819
2.5968,0.394584,-0.168336
2.70739,0.0113405,-0.157673
2.68598,0.142647,0.109584
2.63538,0.269551,-0.123401
2.67256,0.141934,-0.14026
2.66202,0.272275,0.32856
2.68726,0.142714,0.219684
2.59207,0.393865,-0.106816
2.71928,0.144415,0.496493
2.62957,0.268956,-0.0615077
2.61101,0.387424,-0.0460744
2.68356,0.133126,-0.0781954
2.64823,0.131374,-0.530301
2.64314,0.261026,0
2.71982,0.00189916,-0.0316637
2.60386,0.257146,-0.40707
2.60345,0.386302,0.015297
2.68465,0.133181,-0.0156224
2.62003,0.258743,-0.283593
2.70424,0.00188829,-0.252436
2.65835,0.262527,0.0621591
2.73181,0.00190754,0.0318034
2.62876,0.259606,-0.184715
2.6758,0.132741,-0.218708
2.68429,0.133163,0.0469121
2.59422,0.384932,-0.16808
2.71939,0.00189887,-0.158371
2.65457,0.262154,0.155347
2.68647,0.13327,0.109584
2.64028,0.260743,-0.123587
2.67304,0.132604,-0.14026
2.66295,0.262982,0.32856
2.69571,0.133729,0.220335
2.58948,0.384229,-0.106653
2.72369,0.135117,0.49721
2.63447,0.260169,-0.0616008
2.60839,0.377735,-0.0460045
2.688,0.123943,-0.0783117
2.64868,0.12213,-0.530301
2.65598,0.252936,0
2.7278,-0.00761657,-0.0317569
2.60867,0.248431,-0.407685
2.66762,0.123003,-0.339914
2.60083,0.376639,0.0152737
2.6891,0.123993,-0.0156457
2.62091,0.249596,-0.283593
2.70423,-0.00755075,-0.252436
2.65925,0.253247,0.0621591
2.7318,-0.00762774,0.0318034
2.63362,0.250807,-0.184994
2.60768,0.377632,0.0766826
2.68873,0.123977,0.0469819
2.59159,0.375302,-0.167825
2.7074,-0.0075596,-0.157673
2.65149,0.252508,0.155115
2.6949,0.124261,0.10991
2.64515,0.251905,-0.123773
2.68147,0.123642,-0.140679
2.6678,0.254062,0.329047
2.59476,0.375761,-0.106816
2.72808,0.125791,0.497928
2.61365,0.369186,-0.0460744
2.68443,0.114388,-0.0781954
2.653,0.113049,-0.531086
2.65685,0.243663,0
2.73176,-0.0171642,-0.0318034
2.61346,0.239684,-0.4083
2.60609,0.368117,0.015297
2.68552,0.114435,-0.0156224
2.62177,0.240445,-0.283593
2.70021,-0.0169659,-0.252064
2.65215,0.243232,0.061973
2.73976,-0.0172144,0.0318966
2.63846,0.241976,-0.185273
2.60899,0.368527,0.0766826
2.68915,0.11459,0.0469819
2.60079,0.36737,-0.168336
2.71135,-0.0170359,-0.157906
2.65633,0.243615,0.155347
2.68733,0.114512,0.109584
2.64204,0.242304,-0.123587
2.68188,0.11428,-0.140679
2.67658,0.245472,0.330022
2.70056,0.115076,0.22066
2.59605,0.3667,-0.106816
2.73243,0.116434,0.498645
2.6402,0.242136,-0.0616939
2.61486,0.360516,-0.0460744
2.68479,0.105485,-0.0781954
2.65728,0.104404,-0.53187
2.64967,0.234146,0
2.73569,-0.0262621,-0.03185
2.61424,0.231015,-0.4083
2.61125,0.360019,0.0153202
2.68588,0.105528,-0.0156224
2.62255,0.231749,-0.283593
2.7081,-0.0259973,-0.252808
2.66091,0.235139,0.0621591
2.73169,-0.0262237,0.0318034
2.63925,0.233225,-0.185273
2.61019,0.359872,0.0766826
2.69751,0.105985,0.0471215
2.60595,0.359288,-0.168592
2.71927,-0.0261044,-0.158371
2.66508,0.235508,0.155813
2.69169,0.105756,0.109747
2.65078,0.234244,-0.123959
2.68225,0.105385,-0.140679
2.67343,0.236245,0.329535
2.70491,0.106276,0.220986
2.59726,0.358089,-0.106816
2.72887,0.107217,0.497928
2.68916,0.0957872,-0.0783117
2.66157,0.0948045,-0.532655
2.65849,0.225109,0
2.72758,-0.036182,-0.0317569
2.61652,0.350978,0.0153435
2.69824,0.0961109,-0.0156922
2.63131,0.222807,-0.28445
2.70799,-0.0359222,-0.252808
2.66175,0.225385,0.0621591
2.73557,-0.0362881,0.03185
2.64406,0.223887,-0.185552
2.60725,0.349734,-0.168592
2.72315,-0.0361232,-0.158603
2.66593,0.225739,0.155813
2.70005,0.0961751,0.110073
2.64764,0.224191,-0.123773
2.67862,0.095412,-0.14047
2.67427,0.226445,0.329535
2.73318,0.0973553,0.498645
2.6498,0.224373,-0.06188
2.62134,0.342314,-0.0461442
2.69347,0.0865286,-0.0784281
2.65796,0.085388,-0.53187
2.65926,0.215828,0
2.73143,-0.0457692,-0.0318034
2.61376,0.341325,0.0153202
2.69057,0.0864354,-0.0156457
2.63603,0.213943,-0.284878
2.71183,-0.0454407,-0.25318
2.67049,0.21674,0.0623452
2.73943,-0.0459032,0.0318966
2.64085,0.214334,-0.185273
2.68966,0.0864062,-0.219684
2.61667,0.341704,0.076799
2.6942,0.0865521,0.0470517
2.6045,0.340115,-0.168336
2.723,-0.045628,-0.158603
2.67068,0.216755,0.156045
2.70037,0.0867502,0.110073
2.65239,0.215271,-0.123959
2.68692,0.0863184,-0.140888
2.68296,0.217752,0.33051
2.71357,0.0871743,0.221637
2.60768,0.34053,-0.107142
2.74137,0.0880674,0.50008
2.65455,0.215446,-0.061973
2.62246,0.33362,-0.0461442
2.69774,0.0777119,-0.0785444
2.65823,0.0765739,-0.53187
2.66793,0.20763,0
2.74326,-0.055067,-0.0319431
2.62046,0.203935,-0.408915
2.62282,0.333666,0.0153667
2.69883,0.0777435,-0.0156922
2.6288,0.204584,-0.284021
2.71963,-0.0545925,-0.253923
2.67518,0.208194,0.0624383
2.74726,-0.0551473,0.0319897
2.64552,0.205885,-0.185552
2.62175,0.33353,0.0769154
2.70647,0.0779633,0.0472611
2.60561,0.331477,-0.168336
2.72284,-0.054657,-0.158603
2.6674,0.207588,0.155813
2.70863,0.0780256,0.110398
2.66106,0.207095,-0.124331
2.69119,0.0775233,-0.141098
2.67971,0.208546,0.330022
2.71384,0.0781759,0.221637
2.61276,0.332386,-0.107304
2.73771,0.0788635,0.499363
2.64728,0.206022,-0.0617869
2.62758,0.324954,-0.046214
2.70199,0.068395,-0.0786608
2.67025,0.0675915,-0.534224
2.66864,0.198315,0
2.74705,-0.0647374,-0.0319897
2.6251,0.195079,-0.40953
2.68547,0.0679768,-0.341934
2.62397,0.324508,0.0153667
2.69909,0.0683216,-0.0156922
2.63346,0.195701,-0.28445
2.67191,0.198557,0.0623452
2.75105,-0.0648316,0.0320363
2.65418,0.19724,-0.18611
2.63084,0.325357,0.0771481
2.70672,0.0685148,0.0472611
2.61071,0.322869,-0.168592
2.72662,-0.064256,-0.158836
2.67209,0.198571,0.156045
2.70089,0.0683673,0.110073
2.6538,0.197212,-0.123959
2.6923,0.200073,0.331485
2.7141,0.0687016,0.221637
2.61787,0.323753,-0.107467
2.74191,0.0694054,0.50008
2.65197,0.197076,-0.06188
2.6287,0.31578,-0.046214
2.70221,0.0589622,-0.0786608
2.66654,0.0581839,-0.533439
2.66932,0.188998,0
2.75081,-0.0744349,-0.0320363
2.63303,0.3163,0.0154132
2.71131,0.0591607,-0.0157619
2.64603,0.187349,-0.285735
2.7152,-0.0734714,-0.253551
2.67657,0.189511,0.0624383
2.75081,-0.0744349,0.0320363
2.65087,0.187692,-0.185831
2.69838,0.0588786,-0.220335
2.62799,0.315694,0.0770317
2.71094,0.0591527,0.0473309
2.61183,0.313753,-0.168592
2.73037,-0.073882,-0.159068
2.67675,0.189524,0.156278
2.7131,0.0591998,0.110561
2.66244,0.188511,-0.124331
2.69965,0.0589063,-0.141516
2.68506,0.190112,0.33051
2.72628,0.0594874,0.222613
2.62295,0.315089,-0.10763
2.74607,0.0599191,0.500798
2.66062,0.188382,-0.0620661
2.70241,0.0490583,-0.0786608
2.67066,0.0484819,-0.534224
2.67398,0.179481,0
2.74652,-0.0843932,-0.0319897
2.63037,0.176554,-0.410145
2.68985,0.0488303,-0.342439
2.63019,0.306185,0.0153899
2.70751,0.0491509,-0.0157387
2.64273,0.177384,-0.285307
2.71889,-0.0835443,-0.253923
2.68124,0.179968,0.0625313
2.75451,-0.0846389,0.0320828
2.65553,0.178242,-0.18611
2.69858,0.0489887,-0.220335
2.6331,0.306523,0.0771481
2.71914,0.049362,0.0474705
2.62089,0.305102,-0.169104
2.73407,-0.0840109,-0.159301
2.6854,0.180247,0.156743
2.7133,0.049256,0.110561
2.6671,0.179019,-0.124517
2.69985,0.0490118,-0.141516
2.69366,0.180802,0.331485
2.72249,0.0494229,0.222288
2.61615,0.30455,-0.107304
2.74627,0.0498544,0.500798
2.66129,0.178629,-0.0620661
2.71455,0.0402737,-0.0790099
2.67473,0.0396829,-0.535008
2.67456,0.170612,0
2.74622,-0.0935012,-0.0319897
2.63094,0.167829,-0.410145
2.69397,0.0399683,-0.342945
2.62722,0.297011,0.0153667
2.71566,0.0402901,-0.0157852
2.64331,0.168618,-0.285307
2.72258,-0.0926962,-0.254295
2.68581,0.17133,0.0626244
2.75422,-0.0937734,0.0320828
2.65212,0.169181,-0.185831
2.6341,0.297789,0.0771481
2.71929,0.040344,0.0474705
2.61395,0.295511,-0.168592
2.73777,-0.0932135,-0.159533
2.68598,0.17134,0.156743
2.72144,0.0403759,0.110887
2.66768,0.170173,-0.124517
2.70399,0.040117,-0.141726
2.69425,0.171868,0.331485
2.73062,0.040512,0.222939
2.61714,0.295872,-0.107304
2.75035,0.0408048,0.501515
2.66187,0.169802,-0.0620661
2.63584,0.288672,-0.0462838
2.70668,0.0307091,-0.0787772
2.67485,0.0303479,-0.535008
2.67914,0.161518,0
2.75387,-0.103385,-0.0320828
2.6394,0.159122,-0.411375
2.69409,0.0305662,-0.342945
2.63222,0.288276,0.0153899
2.71178,0.0307669,-0.0157619
2.72622,-0.102347,-0.254667
2.75787,-0.103535,0.0321294
2.66464,0.160644,-0.186668
2.6391,0.289029,0.0772645
2.71541,0.0308081,0.0474007
2.62687,0.287691,-0.16936
2.73743,-0.102768,-0.159533
2.68656,0.161966,0.156743
2.72157,0.030878,0.110887
2.66826,0.160862,-0.124517
2.70811,0.0307253,-0.141935
2.70672,0.163181,0.332947
2.73074,0.030982,0.222939
2.62213,0.287172,-0.107467
2.75048,0.031206,0.501515
2.66244,0.160512,-0.0620661
2.6408,0.279891,-0.0463536
2.71077,0.0212915,-0.0788935
2.67886,0.0210409,-0.535792
2.67569,0.151937,0
2.76149,-0.113326,-0.032176
2.63599,0.149683,-0.41076
2.69815,0.0211923,-0.34345
2.63718,0.279507,0.0154132
2.71987,0.021363,-0.0158084
2.69094,0.152803,0.0627174
2.76948,-0.113654,0.0322691
2.66917,0.151567,-0.186947
2.70691,0.0212612,-0.220986
2.64009,0.279815,0.0772645
2.63183,0.278939,-0.169615
2.73705,-0.112323,-0.159533
2.6911,0.152812,0.156975
2.71766,0.0213456,0.110724
2.66481,0.15132,-0.124331
2.71219,0.0213027,-0.142144
2.70331,0.153506,0.33246
2.73083,0.0214491,0.222939
2.63107,0.278859,-0.107793
2.75844,0.0216659,0.50295
2.64574,0.271078,-0.0464234
2.71882,0.0118632,-0.0791263
2.68284,0.0117062,-0.536577
2.6802,0.142809,0
2.76507,-0.123143,-0.0322225
2.64045,0.140691,-0.411375
2.6982,0.0117732,-0.34345
2.64212,0.270707,0.0154364
2.71993,0.011868,-0.0158084
2.6489,0.141141,-0.285735
2.69145,0.143408,0.0627174
2.76907,-0.123321,0.0322691
2.67367,0.142461,-0.187226
2.71096,0.0118288,-0.221311
2.64503,0.271004,0.0773808
2.63279,0.26975,-0.169615
2.74462,-0.122233,-0.159999
2.69161,0.143417,0.156975
2.72971,0.0119107,0.111212
2.6773,0.142654,-0.12489
2.71225,0.0118345,-0.142144
2.70779,0.144279,0.332947
2.73886,0.0119506,0.22359
2.63203,0.269672,-0.107793
2.76243,0.0120535,0.503668
2.67947,0.14277,-0.0624383
2.65065,0.262235,-0.0464932
2.71085,0.00236622,-0.0788935
2.68287,0.0023418,-0.536577
2.68068,0.133453,0
2.76463,-0.132794,-0.0322225
2.64305,0.261483,0.0154364
2.72395,0.00237766,-0.0158317
2.65335,0.132092,-0.286163
2.73295,-0.131273,-0.25541
2.69593,0.134212,0.0628105
2.76862,-0.132986,0.0322691
2.67017,0.132929,-0.186947
2.71098,0.00236634,-0.221311
2.64596,0.26177,0.0773808
2.63769,0.260952,-0.169871
2.74418,-0.131812,-0.159999
2.69609,0.13422,0.157208
2.73773,0.00238968,0.111538
2.67778,0.133308,-0.12489
2.71627,0.00237096,-0.142354
2.70828,0.134827,0.332947
2.7349,0.00238722,0.223264
2.63295,0.260484,-0.107793
2.76246,0.00241127,0.503668
2.67596,0.133218,-0.0623452
2.65146,0.253907,-0.0464932
2.71484,-0.00615872,-0.0790099
2.69071,-0.00610396,-0.538146
2.68508,0.125217,0
2.76419,-0.141478,-0.0322225
2.70616,-0.00613902,-0.34446
2.63988,0.252797,0.0154132
2.72395,-0.00617937,-0.0158317
2.74048,-0.140264,-0.256154
2.70033,0.125929,0.0629035
2.76819,-0.141682,0.0322691
2.67057,0.124541,-0.186947
2.71097,-0.00614994,-0.221311
2.65075,0.253838,0.0774972
2.73558,-0.00620575,0.0477498
2.63452,0.252284,-0.169615
2.74774,-0.140636,-0.160231
2.70447,0.126122,0.157673
2.73373,-0.00620155,0.111375
2.68217,0.125082,-0.125076
2.72026,-0.00617101,-0.142563
2.71266,0.126503,0.333435
2.74686,-0.00623134,0.22424
2.63774,0.252592,-0.107956
2.77032,-0.00628458,0.505103
2.67637,0.124811,-0.0623452
2.64835,0.244282,-0.0464234
2.71481,-0.015636,-0.0790099
2.69067,-0.015497,-0.538146
2.6895,0.116016,0
2.76768,-0.151345,-0.0322691
2.70612,-0.015586,-0.34446
2.64473,0.243948,0.0154364
2.72791,-0.0157114,-0.0158549
2.74395,-0.150048,-0.256526
2.77966,-0.152,0.0324088
2.67497,0.115389,-0.187226
2.71891,-0.0156596,-0.221962
2.65162,0.244583,0.0774972
2.63936,0.243452,-0.169871
2.69692,0.116336,0.157208
2.73369,-0.0157447,0.111375
2.68659,0.11589,-0.125262
2.72022,-0.0156672,-0.142563
2.71308,0.117033,0.333435
2.74283,-0.0157974,0.223915
2.6386,0.243383,-0.107956
2.76241,-0.0159102,0.503668
2.65325,0.234463,-0.0464932
2.71473,-0.0260606,-0.0790099
2.69451,-0.0258666,-0.53893
2.69392,0.105844,0
2.76708,-0.161972,-0.0322691
2.70604,-0.0259772,-0.34446
2.64963,0.234142,0.0154597
2.72783,-0.0261864,-0.0158549
2.69719,0.105973,0.0628105
2.77905,-0.162673,0.0324088
2.71883,-0.0261,-0.221962
2.65652,0.234751,0.0776135
2.74346,-0.0263364,0.0478894
2.64027,0.233316,-0.169871
2.70533,0.106292,0.157673
2.7376,-0.0262802,0.111538
2.68302,0.105416,-0.125076
2.72414,-0.026151,-0.142773
2.71748,0.10677,0.333922
2.75072,-0.0264062,0.224566
2.6435,0.2336,-0.108119
2.76627,-0.0265554,0.504385
2.67721,0.105188,-0.0623452
2.65804,0.225538,-0.046563
2.71862,-0.0355884,-0.0791263
2.62918,0.0941104,-0.73648
2.69048,-0.0352201,-0.538146
2.69028,0.0962975,0
2.77448,-0.172124,-0.0323622
2.71387,-0.0355262,-0.34547
2.65442,0.225231,0.0154829
2.73972,-0.0358646,-0.0159246
2.70154,0.0967005,0.0629035
2.77847,-0.172372,0.0324088
2.67974,0.0959201,-0.187505
2.7267,-0.0356941,-0.222613
2.65732,0.225477,0.0776135
2.74735,-0.0359645,0.0479592
2.64505,0.224436,-0.170127
2.70169,0.0967059,0.15744
2.74149,-0.0358878,0.111701
2.68337,0.0960502,-0.125076
2.72403,-0.0356592,-0.142773
2.71784,0.0972839,0.333922
2.74663,-0.0359551,0.22424
2.65226,0.225048,-0.108444
2.77403,-0.0363137,0.50582
2.68555,0.0961284,-0.0625313
2.66272,0.217512,-0.0466328
2.72649,-0.0442596,-0.079359
2.63331,0.085975,-0.737558
2.6982,-0.0438004,-0.539715
2.69456,0.087975,0
2.77392,-0.180841,-0.0323622
2.71771,-0.0441171,-0.345975
2.6591,0.217215,0.0155062
2.73559,-0.0444074,-0.0159014
2.70982,0.0884732,0.0630896
2.78191,-0.181361,0.0324553
2.68002,0.0875003,-0.187505
2.72657,-0.0442609,-0.222613
2.65802,0.217127,0.0776135
2.64574,0.216124,-0.170127
2.70996,0.0884777,0.157906
2.74136,-0.0445011,0.111701
2.68765,0.0877493,-0.125262
2.7239,-0.0442176,-0.142773
2.71813,0.0887443,0.333922
2.7465,-0.0445844,0.22424
2.64499,0.216063,-0.108119
2.68584,0.0876902,-0.0625313
2.6635,0.207751,-0.0466328
2.72631,-0.0542517,-0.079359
2.63361,0.0763235,-0.737558
2.70194,-0.053767,-0.540499
2.69887,0.0782148,0
2.77723,-0.191281,-0.0324088
2.71753,-0.0540771,-0.345975
2.65589,0.207157,0.0154829
2.74341,-0.0545921,-0.0159479
2.66744,0.0773041,-0.287448
2.75745,-0.189918,-0.258013
2.71413,0.078657,0.0631827
2.78122,-0.191555,0.0324553
2.68432,0.0777931,-0.187784
2.73038,-0.0543327,-0.222939
2.66278,0.207695,0.0777299
2.75104,-0.0547438,0.048029
2.64254,0.206116,-0.169871
2.71027,0.0785452,0.157906
2.75317,-0.0547863,0.112189
2.69195,0.0780143,-0.125448
2.72772,-0.0542798,-0.142982
2.7224,0.0788969,0.33441
2.75429,-0.0548086,0.224891
2.64975,0.206678,-0.108281
2.68615,0.0778461,-0.0625313
2.66022,0.198155,-0.046563
2.7301,-0.0638622,-0.0794753
2.63771,0.0672275,-0.738637
2.69782,-0.0631072,-0.539715
2.70712,0.0689966,0
2.78453,-0.201552,-0.0325019
2.71733,-0.0635635,-0.345975
2.66457,0.198479,0.0155294
2.7432,-0.0641688,-0.0159479
2.76074,-0.199831,-0.258385
2.78852,-0.201841,0.0325485
2.69654,0.0687269,-0.188622
2.73017,-0.0638639,-0.222939
2.66748,0.198695,0.0778463
2.65518,0.197779,-0.170639
2.71053,0.0690834,0.157906
2.75296,-0.0643971,0.112189
2.68821,0.0685147,-0.125262
2.7315,-0.0638951,-0.143191
2.72663,0.0694939,0.334897
2.75807,-0.0645165,0.225217
2.65444,0.197724,-0.108444
2.6609,0.188869,-0.046563
2.70542,-0.0727341,-0.541284
2.71134,0.0596352,0
2.78381,-0.21127,-0.0325019
2.72105,-0.0731543,-0.34648
2.66126,0.188894,0.0155062
2.71461,0.059707,0.0631827
2.79178,-0.211875,0.032595
2.69277,0.0592267,-0.188342
2.73391,-0.0735001,-0.223264
2.67613,0.18995,0.078079
2.75858,-0.0741633,0.0481686
2.65586,0.188511,-0.170639
2.71474,0.0597099,0.158138
2.74873,-0.0738982,0.112026
2.69642,0.059307,-0.125634
2.73526,-0.0735361,-0.143401
2.7348,0.060151,0.335872
2.76181,-0.07425,0.225542
2.65511,0.188458,-0.108444
2.69462,0.0592673,-0.0627174
2.66952,0.180118,-0.0467026
2.73358,-0.0830409,-0.0795917
2.64196,0.0488832,-0.739715
2.70123,-0.0820583,-0.540499
2.69954,0.0499485,0
2.78305,-0.220986,-0.0325019
2.66745,0.0493547,-0.415064
2.72078,-0.0826521,-0.34648
2.66589,0.179873,0.0155294
2.75468,-0.0836819,-0.0160176
2.7188,0.0503048,0.0632757
2.78305,-0.220986,0.0325019
2.69296,0.0498268,-0.188342
2.73763,-0.0831638,-0.22359
2.68077,0.180876,0.0781954
2.76231,-0.0839135,0.0482385
2.65252,0.17897,-0.170383
2.76659,-0.219679,-0.161626
2.71893,0.0503072,0.158371
2.75245,-0.083614,0.112189
2.69262,0.0498205,-0.125448
2.73498,-0.0830835,-0.143401
2.72705,0.0504575,0.334897
2.76154,-0.0838901,0.225542
2.66373,0.179727,-0.10877
2.69881,0.049935,-0.0628105
2.6741,0.17152,-0.0467725
2.64596,0.0401804,-0.740793
2.70879,-0.0912796,-0.542068
2.70769,0.0411177,0
2.73239,-0.092075,-0.347995
2.67047,0.171287,0.0155527
2.75839,-0.0929511,-0.0160409
2.76251,-0.228576,-0.258756
2.72295,0.0413494,0.0633688
2.79028,-0.230873,0.032595
2.6971,0.0409569,-0.188622
2.73335,-0.0921074,-0.223264
2.67736,0.17173,0.078079
2.66505,0.17094,-0.17115
2.77778,-0.22984,-0.162324
2.72706,0.0414119,0.158836
2.76414,-0.0931448,0.112678
2.69676,0.0409518,-0.125634
2.73869,-0.0922871,-0.14361
2.73514,0.0415346,0.335872
2.76523,-0.0931815,0.225868
2.66431,0.170892,-0.10877
2.70296,0.0410458,-0.0629035
2.74093,-0.102421,-0.0798244
2.64994,0.0305265,-0.741871
2.70843,-0.101207,-0.542068
2.70782,0.0311932,0
2.78941,-0.241099,-0.032595
2.67168,0.0307769,-0.415679
2.72807,-0.101941,-0.34749
2.67108,0.161498,0.0155527
2.75803,-0.10306,-0.0160409
2.76959,-0.239385,-0.2595
2.79738,-0.241787,0.0326882
2.70122,0.0311172,-0.188901
2.74096,-0.102423,-0.223915
2.67797,0.161915,0.078079
2.76565,-0.103345,0.0483083
2.66565,0.16117,-0.17115
2.77692,-0.240019,-0.162324
2.7272,0.0314165,0.158836
2.76777,-0.103424,0.112841
2.70089,0.0311134,-0.12582
2.73833,-0.102324,-0.14361
2.73925,0.0315552,0.336359
2.77283,-0.103614,0.226519
2.66093,0.160885,-0.108607
2.70709,0.0311848,-0.0629966
2.67126,0.152153,-0.0467026
2.74055,-0.111988,-0.0798244
2.70806,-0.110661,-0.542068
2.71591,0.0218052,0
2.78855,-0.250834,-0.032595
2.7277,-0.111463,-0.34749
2.67562,0.152401,0.0155759
2.75366,-0.112524,-0.0160176
2.7727,-0.249408,-0.259872
2.73117,0.0219277,0.0635549
2.79652,-0.251551,0.0326882
2.70531,0.0217201,-0.18918
2.73661,-0.111827,-0.22359
2.68251,0.152794,0.0781954
2.76527,-0.112998,0.0483083
2.6662,0.151865,-0.17115
2.72729,0.0218966,0.158836
2.76739,-0.113085,0.112841
2.70898,0.0217495,-0.126192
2.74594,-0.112208,-0.144029
2.74331,0.0220252,0.336847
2.77644,-0.113455,0.226844
2.66946,0.15205,-0.108933
2.67974,0.143722,-0.0468423
2.74416,-0.121252,-0.0799408
2.65394,0.0125065,-0.74295
2.71552,-0.119987,-0.543637
2.71597,0.0127988,0
2.79169,-0.260451,-0.0326416
2.73128,-0.120683,-0.347995
2.6801,0.143742,0.0155992
2.76526,-0.122184,-0.0160874
2.72723,0.0128519,0.0634618
2.80363,-0.261566,0.0327813
2.70137,0.01273,-0.188901
2.74817,-0.121429,-0.224566
2.687,0.144112,0.0783117
2.77287,-0.122521,0.0484479
2.66669,0.143022,-0.17115
2.7792,-0.259287,-0.162557
2.73534,0.0128901,0.159301
2.76301,-0.122085,0.112678
2.70903,0.0127661,-0.126192
2.74954,-0.12149,-0.144238
2.74734,0.0129466,0.337334
2.78003,-0.122837,0.22717
2.66994,0.143197,-0.108933
2.71124,0.0127765,-0.0630896
2.68422,0.134568,-0.0469121
2.74771,-0.131021,-0.0800572
2.71117,-0.129278,-0.542853
2.716,0.00331822,0
2.67976,0.00327395,-0.416909
2.7348,-0.130405,-0.3485
2.68059,0.134386,0.0155992
2.76881,-0.132027,-0.0161106
2.73126,0.00333687,0.0635549
2.79872,-0.270965,0.0327347
2.70539,0.00330526,-0.18918
2.74374,-0.130832,-0.22424
2.69148,0.134932,0.0784281
2.77642,-0.13239,0.0485177
2.67116,0.133913,-0.171406
2.78225,-0.269371,-0.162789
2.73137,0.003337,0.159068
2.76656,-0.131919,0.112841
2.70507,0.00330487,-0.126006
2.74511,-0.130897,-0.144029
2.7434,0.00335169,0.336847
2.78755,-0.13292,0.227821
2.6824,0.134477,-0.109421
2.70727,0.00330755,-0.0629966
2.71999,-0.00664621,0
2.73827,-0.140631,-0.349005
2.69305,0.125117,0.0156689
2.78183,-0.279625,-0.260987
2.73525,-0.00668349,0.0636479
2.80567,-0.282021,0.0328279
2.70938,-0.00662027,-0.189459
2.74325,-0.140887,-0.22424
2.68397,0.124695,0.0781954
2.77592,-0.142565,0.0485177
2.67163,0.124122,-0.171406
2.73136,-0.006674,0.159068
2.77404,-0.142468,0.113166
2.70905,-0.00661948,-0.126192
2.7486,-0.141162,-0.144238
2.75133,-0.00672278,0.337822
2.78306,-0.142932,0.227495
2.6709,0.124088,-0.108933
2.71126,-0.00662487,-0.0630896
2.718,-0.149105,-0.544422
2.72395,-0.0161644,0
2.80467,-0.291813,-0.0328279
2.7338,-0.149971,-0.3485
2.68548,0.115372,0.0156224
2.77578,-0.152274,-0.0161571
2.7848,-0.289746,-0.261359
2.73921,-0.016255,0.063741
2.80467,-0.291813,0.0328279
2.70934,-0.0160777,-0.189459
2.7507,-0.150899,-0.224891
2.69238,0.115668,0.0784281
2.7794,-0.152473,0.0485875
2.66806,0.114624,-0.17115
2.7882,-0.2901,-0.163254
2.7433,-0.0162793,0.159766
2.77752,-0.15237,0.113329
2.71701,-0.0161232,-0.126565
2.75607,-0.151193,-0.144657
2.75526,-0.0163502,0.338309
2.78653,-0.152864,0.227821
2.6833,0.115278,-0.109421
2.72321,-0.0161601,-0.0633688
2.69747,0.106927,-0.0471215
2.76216,-0.160716,-0.0805226
2.72141,-0.158345,-0.545206
2.72788,-0.0252343,0
2.80369,-0.301112,-0.0328279
2.74121,-0.159497,-0.34951
2.69784,0.106941,0.0156922
2.77127,-0.161246,-0.0161339
2.78382,-0.298979,-0.261359
2.74314,-0.0253754,0.0638341
2.81164,-0.301967,0.032921
2.70927,-0.0250621,-0.189459
2.75814,-0.160483,-0.225542
