2.47392,0.26395,-0.01446
2.40468,0.376134,-0.262174
2.50098,0.143769,-0.233847
2.42979,0.380062,0.0572273
2.52366,0.145073,0.0294287
2.48154,0.264763,0.0435612
2.5076,0.14415,-0.146278
2.43423,0.380756,0.143487
2.41597,0.3779,-0.113908
2.45865,0.262321,-0.129584
2.36393,0.489117,-0.0983488
2.42189,0.378826,-0.0570412
2.37498,0.483195,-0.0423046
2.46582,0.254818,-0.0721445
2.42379,0.370892,0
2.52812,0.136919,-0.0294752
2.39498,0.366484,-0.37694
2.3753,0.48326,0.0140881
2.40592,0.368157,-0.262174
2.50144,0.135474,-0.233847
2.43499,0.372606,0.0573204
2.52812,0.136919,0.0294752
2.48638,0.256943,0.043631
2.37047,0.482279,-0.155033
2.50807,0.135833,-0.146278
2.43548,0.372681,0.143487
2.42511,0.371095,-0.11428
2.46348,0.254577,-0.129793
2.41523,0.369582,-0.0568551
2.38449,0.476468,-0.0424443
2.46669,0.246209,-0.0721445
2.42902,0.36302,0
2.53258,0.128295,-0.0295218
2.39624,0.358121,-0.37694
2.48362,0.247898,-0.0145065
2.40325,0.359168,-0.261745
2.43628,0.364104,0.0573204
2.53258,0.128295,0.0295218
2.47532,0.24707,0.0434216
2.37606,0.474783,-0.155289
2.51252,0.127279,-0.14651
2.44071,0.364767,0.14372
2.46833,0.246372,-0.130003
2.37112,0.473797,-0.0985116
2.42441,0.362331,-0.0570412
2.37837,0.466188,-0.0423046
2.47952,0.238314,-0.0724936
2.4343,0.354692,0
2.53703,0.1192,-0.0295684
2.48849,0.239177,-0.0145298
2.41242,0.351505,-0.262602
2.51031,0.117944,-0.234591
2.43759,0.355173,0.0573204
2.53703,0.1192,0.0295684
2.48815,0.239144,0.043631
2.37386,0.465304,-0.155033
2.43166,0.354308,-0.114467
2.47717,0.238088,-0.130421
2.36892,0.464335,-0.0983488
2.42177,0.352866,-0.0569482
2.38784,0.459393,-0.0424443
2.47636,0.229288,-0.0723772
2.43948,0.346755,0
2.54143,0.110516,-0.0296149
2.38424,0.4587,0.0141113
2.49329,0.230857,-0.014553
2.4097,0.342522,-0.262174
2.51468,0.109353,-0.234963
2.44278,0.347224,0.0574134
2.53743,0.110343,0.0295684
2.49694,0.231194,0.0437706
2.38331,0.458522,-0.155545
2.51336,0.109296,-0.14651
2.44721,0.347854,0.143952
2.42892,0.345255,-0.11428
2.47799,0.229439,-0.130421
2.37838,0.457572,-0.0986745
2.4309,0.345535,-0.0571343
2.38943,0.451056,-0.0424443
2.48112,0.220998,-0.0724936
2.43671,0.337689,0
2.40775,0.333675,-0.37817
2.49408,0.222153,-0.014553
2.41876,0.335201,-0.26303
2.51505,0.100575,-0.234963
2.44794,0.339244,0.0575065
2.5418,0.101645,0.0296149
2.42682,0.336318,-0.171322
2.5057,0.223187,0.0439103
2.3849,0.450201,-0.155545
2.51772,0.100682,-0.146743
2.44841,0.33931,0.143952
2.43803,0.337871,-0.114653
2.47479,0.220434,-0.130212
2.38389,0.450009,-0.0988373
2.43605,0.337597,-0.0572273
2.39878,0.444588,-0.0425839
2.48184,0.21277,-0.0724936
2.44575,0.330679,0
2.53812,0.0930696,-0.0295684
2.40884,0.325689,-0.37817
2.49879,0.214223,-0.0145763
2.4238,0.327711,-0.263459
2.51537,0.0922352,-0.234963
2.44905,0.331125,0.0575065
2.54612,0.0933627,0.0296615
2.47863,0.212495,-0.203086
2.49845,0.214194,0.0437706
2.52602,0.0926258,-0.147208
2.4614,0.332795,0.14465
2.43914,0.329785,-0.114653
2.48347,0.212909,-0.130631
2.3775,0.440645,-0.0985116
2.44508,0.330589,-0.0574134
2.40425,0.436926,-0.0426537
2.48655,0.204432,-0.07261
2.44292,0.321617,0
2.55042,0.0846065,-0.029708
2.50351,0.205826,-0.0145995
2.42493,0.319248,-0.263459
2.46208,0.32414,0.0577856
2.55042,0.0846065,0.029708
2.49919,0.205471,0.0437706
2.38791,0.433957,-0.155545
2.52633,0.0838071,-0.147208
2.45858,0.323679,0.144417
2.44424,0.32179,-0.114839
2.48818,0.204566,-0.13084
2.38689,0.433772,-0.0988373
2.43829,0.321008,-0.0572273
2.40182,0.427829,-0.0425839
2.49124,0.196064,-0.0727263
2.45196,0.314103,0
2.5547,0.0758213,-0.0297546
2.49624,0.196458,-0.014553
2.42603,0.310781,-0.263459
2.52789,0.0750256,-0.236078
2.45923,0.315034,0.0576926
2.5547,0.0758213,0.0297546
2.44203,0.312831,-0.172159
2.50786,0.197373,0.0439103
2.39334,0.426318,-0.155801
2.5306,0.0751059,-0.147441
2.46366,0.315602,0.14465
2.44534,0.313255,-0.114839
2.48888,0.195878,-0.13084
2.38839,0.425437,-0.0988373
2.44733,0.31351,-0.0574134
2.40724,0.420131,-0.0426537
2.48792,0.187068,-0.07261
2.45304,0.305543,0
2.55495,0.0669038,-0.0297546
2.50888,0.188643,-0.0146228
2.4271,0.302311,-0.263459
2.52814,0.0662017,-0.236078
2.45635,0.305955,0.0575995
2.55895,0.0670085,0.0298012
2.44311,0.304305,-0.172159
2.50854,0.188618,0.0439103
2.39875,0.418648,-0.156056
2.53483,0.066377,-0.147673
2.46475,0.307,0.14465
2.45039,0.305212,-0.115025
2.49751,0.187789,-0.131259
2.39774,0.418472,-0.0991629
2.45238,0.30546,-0.0575065
2.40869,0.411726,-0.0426537
2.49653,0.178954,-0.0728427
2.4541,0.296979,0
2.55917,0.0580763,-0.0298012
2.421,0.292974,-0.379399
2.40902,0.411782,0.0142043
2.43603,0.294793,-0.264316
2.53234,0.0574674,-0.23645
2.46137,0.297859,0.0576926
2.55917,0.0580763,0.0298012
2.4402,0.295297,-0.17188
2.51716,0.180433,0.0440499
2.40019,0.410273,-0.156056
2.53505,0.057529,-0.147673
2.46977,0.298875,0.144882
2.51147,0.180025,0.102582
2.45144,0.296657,-0.115025
2.49417,0.178785,-0.131049
2.5251,0.181002,0.206666
2.40706,0.411447,-0.0994886
2.45343,0.296899,-0.0575065
2.41011,0.403316,-0.0426537
2.49714,0.170239,-0.0728427
2.45512,0.288411,0
2.55935,0.0491433,-0.0298012
2.42201,0.284522,-0.379399
2.4065,0.40271,0.0141811
2.51811,0.171669,-0.0146693
2.4331,0.285824,-0.263887
2.54447,0.0488574,-0.237565
2.47034,0.290199,0.0578787
2.56335,0.0492201,0.0298477
2.49787,0.170289,-0.204388
2.52575,0.17219,0.0441895
2.53923,0.0487568,-0.147906
2.47873,0.291185,0.145348
2.51607,0.171529,0.102745
2.45643,0.288565,-0.115211
2.50275,0.170621,-0.131468
2.4006,0.401724,-0.0991629
2.4624,0.289266,-0.0576926
2.5057,0.162037,-0.0730754
2.46008,0.280292,0
2.55951,0.0402085,-0.0298012
2.43084,0.27696,-0.380629
2.5187,0.162877,-0.0146693
2.43408,0.277329,-0.263887
2.54064,0.039912,-0.237193
2.47134,0.281574,0.0578787
2.57151,0.040397,0.0299409
2.52235,0.163113,0.0441197
2.403,0.393506,-0.156056
2.47576,0.282078,0.145115
2.52064,0.163003,0.102908
2.46139,0.28044,-0.115397
2.49934,0.161626,-0.131259
2.40199,0.393341,-0.0991629
2.46737,0.281121,-0.0577856
2.42077,0.387744,-0.0427933
2.50625,0.153289,-0.0730754
2.46502,0.272141,0
2.56763,0.0313709,-0.0298943
2.43572,0.268906,-0.381244
2.4132,0.386532,0.0142043
2.52723,0.154572,-0.0147158
2.43899,0.269266,-0.264316
2.54475,0.0310913,-0.237565
2.48026,0.273823,0.0580648
2.57163,0.0314198,0.0299409
2.52689,0.154551,0.0441895
2.4083,0.385747,-0.156312
2.5435,0.0310761,-0.148138
2.52518,0.154447,0.103071
2.46235,0.271846,-0.115397
2.50388,0.153144,-0.131468
2.41124,0.386218,-0.0994886
2.45641,0.27119,-0.0575065
2.42606,0.379911,-0.0428631
2.51077,0.14477,-0.0731918
2.46994,0.26396,0
2.56773,0.0224085,-0.0298943
2.43272,0.259983,-0.380629
2.52776,0.14575,-0.0147158
2.43991,0.260752,-0.264316
2.54086,0.022174,-0.237193
2.47324,0.264314,0.0578787
2.57973,0.0225132,0.030034
2.53141,0.14596,0.0442593
2.41357,0.377956,-0.156568
2.48164,0.265211,0.145348
2.45931,0.262825,-0.115211
2.51636,0.145093,-0.132096
2.41257,0.377799,-0.0994886
2.46529,0.263464,-0.0576926
2.42731,0.371864,-0.0428631
2.51522,0.136661,-0.0733081
2.4708,0.255769,0
2.57179,0.0139157,-0.0299409
2.44143,0.252728,-0.381859
2.42368,0.371309,0.0142508
2.53222,0.137584,-0.014739
2.45263,0.253888,-0.265601
2.55286,0.0138133,-0.238309
2.48604,0.257347,0.0581579
2.57979,0.013959,0.030034
2.46081,0.254735,-0.172996
2.53188,0.137566,0.0442593
2.41876,0.370555,-0.156824
2.55563,0.0138283,-0.148836
2.49045,0.257803,0.145813
2.46017,0.254669,-0.115211
2.51284,0.136531,-0.131887
2.54377,0.138212,0.207968
2.41381,0.369797,-0.0994886
2.47013,0.2557,-0.0577856
2.43254,0.36398,-0.0429329
2.51569,0.127879,-0.0733081
2.48362,0.248336,0
2.57982,0.00495305,-0.030034
2.44229,0.244204,-0.381859
2.42496,0.362846,0.0142508
2.53668,0.128947,-0.0147623
2.4535,0.245325,-0.265601
2.55688,0.00490901,-0.23868
2.4909,0.249064,0.0582509
2.58382,0.00496073,0.0300806
2.54433,0.129335,0.0444687
2.55966,0.00491434,-0.149068
2.49133,0.249108,0.145813
2.47297,0.247272,-0.115769
2.51729,0.127961,-0.132096
2.41904,0.36196,-0.0996514
2.47896,0.247871,-0.0579717
2.4338,0.355488,-0.0429329
2.51612,0.119098,-0.0733081
2.4765,0.238897,0
2.57982,-0.00405169,-0.030034
2.44707,0.236057,-0.382474
2.53712,0.120092,-0.0147623
2.45434,0.236759,-0.265601
2.56485,-0.00402817,-0.239424
2.49176,0.240368,0.0582509
2.58782,-0.00406426,0.0301271
2.43314,0.355391,0.0715627
2.54476,0.120454,0.0444687
2.42524,0.354237,-0.15708
2.56765,-0.00403257,-0.149534
2.49616,0.240794,0.146045
2.53905,0.120183,0.103559
2.4778,0.239022,-0.115956
2.51772,0.119174,-0.132096
2.42029,0.353514,-0.0996514
2.47981,0.239216,-0.0579717
2.43503,0.346989,-0.0429329
2.48131,0.230621,0
2.57979,-0.0130576,-0.030034
2.44394,0.227148,-0.381859
2.4314,0.346472,0.0142741
2.53352,0.111059,-0.014739
2.4512,0.227822,-0.265172
2.50054,0.232409,0.058437
2.59179,-0.0131183,0.0301737
2.47526,0.230059,-0.173833
2.54517,0.111569,0.0444687
2.42646,0.345768,-0.15708
2.49699,0.232078,0.146045
2.54345,0.111494,0.103722
2.47862,0.230371,-0.115956
2.5261,0.110734,-0.132515
2.55305,0.111915,0.208619
2.42942,0.346191,-0.0999771
2.48462,0.230928,-0.0580648
2.44415,0.339589,-0.0430725
2.48608,0.222315,0
2.58773,-0.0221305,-0.0301271
2.54988,0.10286,-0.014832
2.4599,0.219973,-0.266029
2.56077,-0.0219,-0.239052
2.48939,0.222611,0.0581579
2.59173,-0.0221647,0.0301737
2.48002,0.221773,-0.174112
2.54554,0.102685,0.0444687
2.42765,0.337297,-0.15708
2.49778,0.223361,0.146045
2.47145,0.221006,-0.115583
2.53047,0.102077,-0.132724
2.43457,0.338259,-0.10014
2.48142,0.221898,-0.0579717
2.44526,0.331482,-0.0430725
2.5252,0.0934786,-0.0735409
2.4868,0.21407,0
2.59164,-0.0307586,-0.0301737
2.45724,0.211525,-0.383704
2.44163,0.33099,0.0143206
2.54621,0.0942564,-0.0148088
2.46061,0.211815,-0.266029
2.57263,-0.030533,-0.240167
2.50605,0.215727,0.0585301
2.59164,-0.0307586,0.0301737
2.47677,0.213206,-0.173833
2.52985,0.0936506,-0.206666
2.4446,0.331392,0.0717954
2.54986,0.0943916,0.0445385
2.43667,0.330318,-0.157591
2.57146,-0.0305191,-0.149766
2.50249,0.21542,0.146278
2.47615,0.213153,-0.115769
2.53478,0.0938333,-0.132933
2.43568,0.330184,-0.10014
2.49011,0.214355,-0.0581579
2.44646,0.322517,-0.0430725
2.52952,0.0843553,-0.0736572
2.49156,0.205282,0
2.59151,-0.0402579,-0.0301737
2.458,0.202517,-0.383704
2.44282,0.322038,0.0143206
2.55454,0.0851895,-0.0148553
2.46534,0.203121,-0.266457
2.57649,-0.0400245,-0.240539
2.50682,0.206539,0.0585301
2.47753,0.204126,-0.173833
2.53017,0.0843769,-0.206666
2.56219,0.0854445,0.044748
2.43786,0.321384,-0.157591
2.58331,-0.0401305,-0.150464
2.5152,0.20723,0.146975
2.55246,0.0851203,0.104048
2.48886,0.205059,-0.116328
2.53511,0.0845416,-0.132933
2.43688,0.321254,-0.10014
2.49487,0.205554,-0.0582509
2.45153,0.314485,-0.0431423
2.53779,0.0757642,-0.07389
2.49625,0.196898,0
2.60335,-0.0495314,-0.0303134
2.46263,0.194247,-0.384319
2.44393,0.313509,0.0143206
2.55882,0.0763919,-0.0148785
2.46207,0.194202,-0.266029
2.50753,0.197788,0.0585301
2.60335,-0.0495314,0.0303134
2.48619,0.196105,-0.174391
2.55447,0.0762622,0.0446084
2.43897,0.312873,-0.157591
2.58715,-0.0492231,-0.150696
2.51591,0.198449,0.146975
2.56073,0.0764491,0.104373
2.48956,0.196371,-0.116328
2.53938,0.0758116,-0.133143
2.44195,0.313255,-0.100303
2.49956,0.197159,-0.058344
2.45256,0.306353,-0.0431423
2.53803,0.0673475,-0.07389
2.49689,0.188619,0
2.60317,-0.0581649,-0.0303134
2.45932,0.185781,-0.383704
2.55506,0.0677993,-0.0148553
2.46666,0.186335,-0.266457
2.5881,-0.0578281,-0.241655
2.51615,0.190074,0.0587162
2.60317,-0.0581649,0.0303134
2.55871,0.0678962,0.0446782
2.44395,0.305277,-0.157847
2.58298,-0.0577136,-0.150464
2.51257,0.189803,0.146743
2.56497,0.0680623,0.104536
2.49418,0.188414,-0.116514
2.53962,0.0673896,-0.133143
2.44297,0.305155,-0.100303
2.5002,0.188869,-0.058344
2.45764,0.297843,-0.0432122
2.50155,0.179753,0
2.59894,-0.0676011,-0.0302668
2.46787,0.177333,-0.384934
2.454,0.297402,0.0143671
2.55929,0.0585261,-0.0148785
2.4713,0.177579,-0.266886
2.58787,-0.067313,-0.241655
2.51284,0.180564,0.0586231
2.60694,-0.0678091,0.0303599
2.49546,0.179315,-0.174949
2.57094,0.0587924,0.0448876
2.44902,0.296798,-0.158103
2.59073,-0.0673875,-0.150929
2.51723,0.18088,0.146975
2.56121,0.0585699,0.104373
2.48688,0.178699,-0.116142
2.54384,0.0581729,-0.133352
2.57476,0.0588799,0.210246
2.45598,0.297642,-0.100791
2.50486,0.179991,-0.058437
2.46264,0.289729,-0.043282
2.50216,0.171019,0
2.60669,-0.0769093,-0.0303599
2.46848,0.168717,-0.384934
2.459,0.289301,0.0143903
2.57147,0.0498239,-0.0149482
2.47587,0.169222,-0.267314
2.52143,0.172336,0.0588092
2.49607,0.170603,-0.174949
2.46197,0.289651,0.0721445
2.57113,0.0498172,0.0448876
2.59447,-0.0765488,-0.151161
2.52582,0.172636,0.147441
2.56939,0.0497834,0.104699
2.50344,0.171106,-0.116886
2.55202,0.0494469,-0.133771
2.457,0.289066,-0.100791
2.50548,0.171246,-0.058437
2.46751,0.282447,-0.0433518
2.55058,0.0414042,-0.074239
2.50668,0.163418,0
2.60643,-0.0850975,-0.0303599
2.47294,0.161219,-0.385548
2.46387,0.28203,0.0144135
2.57162,0.0417456,-0.0149482
2.48036,0.161702,-0.267743
2.59931,-0.0848649,-0.24277
2.52196,0.164415,0.0588092
2.50057,0.16302,-0.175228
2.54719,0.0413491,-0.207968
2.57927,0.0418698,0.0450272
2.59821,-0.084829,-0.151394
2.52635,0.164701,0.147441
2.57353,0.0417766,0.104862
2.51194,0.163761,-0.117258
2.55216,0.0414298,-0.133771
2.44996,0.280437,-0.100466
2.51797,0.164154,-0.0587162
2.47255,0.27341,-0.0434216
2.55472,0.0316605,-0.0743554
2.51128,0.154038,0
2.61808,-0.0955418,-0.0304996
2.48143,0.152207,-0.386778
2.46096,0.272128,0.0143903
2.57176,0.0318717,-0.0149482
2.48096,0.152178,-0.267743
2.53455,0.155465,0.0590884
2.61808,-0.0955418,0.0304996
2.5553,0.0316677,-0.208619
2.46791,0.272897,0.0722609
2.57541,0.0319169,0.0449574
2.60585,-0.0950954,-0.151859
2.53493,0.155488,0.147906
2.57766,0.0319448,0.105025
2.51255,0.154115,-0.117258
2.5523,0.0316305,-0.133771
2.45499,0.271468,-0.100628
2.51858,0.154486,-0.0587162
2.46951,0.264351,-0.0433518
2.56681,0.0228488,-0.0747045
2.62572,-0.105,-0.0305928
2.48195,0.143543,-0.386778
2.46587,0.263961,0.0144135
2.56786,0.022858,-0.014925
2.48545,0.143746,-0.268171
2.53508,0.146616,0.0590884
2.62572,-0.105,0.0305928
2.50568,0.144916,-0.175507
2.55938,0.0227826,-0.208944
2.47282,0.264705,0.0723772
2.5835,0.0229973,0.045097
2.46483,0.26385,-0.158871
2.60151,-0.104032,-0.151627
2.53546,0.146638,0.147906
2.58176,0.0229818,0.105188
2.51307,0.145343,-0.117258
2.55639,0.022756,-0.13398
2.59128,0.0230665,0.211548
2.46387,0.263747,-0.100954
2.51911,0.145692,-0.0587162
2.47829,0.257419,-0.0434914
2.56287,0.0147622,-0.0745881
2.52023,0.137816,0
2.63337,-0.113593,-0.0306859
2.49028,0.136177,-0.388008
2.47067,0.256627,0.0144368
2.57591,0.0148374,-0.0149715
2.49383,0.136371,-0.269028
2.60624,-0.112422,-0.243513
2.53153,0.138433,0.0589953
2.63337,-0.113593,0.0306859
2.5141,0.13748,-0.176065
2.48159,0.257762,0.07261
2.58756,0.0149045,0.0451668
2.61314,-0.11272,-0.152324
2.53591,0.138673,0.147906
2.50953,0.13723,-0.117072
2.56444,0.0147713,-0.134399
2.46866,0.256419,-0.101117
2.52355,0.137997,-0.0588092
2.52989,0.00574046,-0.505983
2.62896,-0.122599,-0.0306393
2.48349,0.249199,0.0145065
2.58395,0.00586312,-0.015018
2.50223,0.128071,-0.269885
2.61378,-0.121891,-0.244257
2.532,0.129595,0.0589953
2.63296,-0.122785,0.0306859
2.51058,0.128499,-0.175786
2.48646,0.249497,0.0727263
2.5916,0.00588047,0.0452366
2.4705,0.247896,-0.159126
2.61672,-0.122028,-0.152557
2.54036,0.130023,0.148138
2.58585,0.00586742,0.10535
2.506,0.128264,-0.116886
2.56447,0.00581893,-0.134399
2.46954,0.247799,-0.101117
2.52801,0.129391,-0.0589023
2.48007,0.239678,-0.0434914
2.57491,-0.00359437,-0.0749372
2.53382,-0.00353701,-0.506767
2.52515,0.119967,0
2.6285,-0.132233,-0.0306393
2.48724,0.118166,-0.387393
2.55538,-0.00356711,-0.325267
2.4804,0.23971,0.0144833
2.58795,-0.00361258,-0.0150412
2.49871,0.118711,-0.269456
2.54045,0.120694,0.0591814
2.63249,-0.132434,0.0306859
2.51502,0.119486,-0.176065
2.56347,-0.0035784,-0.209269
2.5916,-0.00361767,0.0452366
2.62423,-0.132018,-0.153022
2.55279,0.121281,0.148836
2.59385,-0.00362081,0.105676
2.51843,0.119648,-0.117445
2.56847,-0.00358539,-0.134608
2.46645,0.238362,-0.100954
2.53246,0.120315,-0.0589953
2.48881,0.232195,-0.043631
2.57488,-0.0121338,-0.0749372
2.53353,0.111946,0
2.64003,-0.141592,-0.030779
2.49552,0.110266,-0.388623
2.55535,-0.0120417,-0.325267
2.48118,0.231483,0.0144833
2.59193,-0.0122141,-0.0150645
2.50704,0.110775,-0.270313
2.54483,0.112445,0.0592745
2.64003,-0.141592,0.030779
2.51938,0.111321,-0.176344
2.59558,-0.0122313,0.0453064
2.63175,-0.141148,-0.153487
2.5452,0.112461,0.148371
2.59782,-0.0122418,0.105839
2.52679,0.111648,-0.117817
2.58043,-0.0121599,-0.135236
2.47917,0.231295,-0.101443
2.53684,0.112092,-0.0590884
2.48168,0.222358,-0.0434914
2.57482,-0.0215705,-0.0749372
2.64348,-0.151496,-0.0308256
2.55926,-0.0214402,-0.325772
2.48998,0.223102,0.0145298
2.59187,-0.0217133,-0.0150645
2.50345,0.101425,-0.269885
2.54922,0.103279,0.0593675
2.52376,0.102248,-0.176623
2.57136,-0.0215415,-0.20992
2.48897,0.223011,0.0727263
2.59951,-0.0217774,0.0453763
2.47698,0.221936,-0.159382
2.62324,-0.150336,-0.153022
2.54959,0.103294,0.148603
2.52718,0.102387,-0.117817
2.57238,-0.0215501,-0.134817
2.48,0.222207,-0.101443
2.53723,0.102794,-0.0590884
2.49439,0.214722,-0.0437008
2.57873,-0.0306063,-0.0750536
2.53426,0.0938131,0
2.65092,-0.161209,-0.0309187
2.50809,0.0928442,-0.390468
2.56711,-0.0304684,-0.326782
2.49075,0.214408,0.0145298
2.60377,-0.0309036,-0.0151342
2.51174,0.0929793,-0.270741
2.62373,-0.159555,-0.245372
2.55356,0.0945274,0.0594606
2.65092,-0.161209,0.0309187
2.53208,0.0937322,-0.177181
2.4977,0.215007,0.0729591
2.60342,-0.0308994,0.0454461
2.63865,-0.160462,-0.153952
2.55392,0.0945408,0.148836
2.60166,-0.0308785,0.106002
2.52353,0.0934159,-0.117631
2.58028,-0.0306247,-0.135236
2.61512,-0.0310382,0.2135
2.53757,0.0939357,-0.0590884
2.49513,0.206014,-0.0437008
2.5866,-0.0397298,-0.0752863
2.54921,-0.0391555,-0.509905
2.53857,0.0851009,0
2.65833,-0.170974,-0.0310118
2.5084,0.0840893,-0.390468
2.60765,-0.0400532,-0.0151575
2.52,0.0844782,-0.271598
2.55387,0.0856138,0.0594606
2.5284,0.0847599,-0.176902
2.50641,0.206946,0.0731918
2.61129,-0.0401092,0.0455857
2.48642,0.205295,-0.159894
2.63807,-0.169671,-0.153952
2.53183,0.0848748,-0.118003
2.57616,-0.0395695,-0.135027
2.61898,-0.0402272,0.213826
2.49344,0.205875,-0.101931
2.54588,0.0853458,-0.0592745
2.59445,-0.0484559,-0.075519
2.65775,-0.179788,-0.0310118
2.51261,0.0758905,-0.391083
2.50012,0.198082,0.0145763
2.6075,-0.0486997,-0.0151575
2.52027,0.0761216,-0.271598
2.63847,-0.178484,-0.246859
2.56214,0.0773863,0.0596467
2.65375,-0.179518,0.0309653
2.53266,0.0764959,-0.177181
2.58296,-0.0482413,-0.210897
2.50708,0.198633,0.0731918
2.61115,-0.0487678,0.0455857
2.49107,0.197365,-0.16015
2.64546,-0.178957,-0.154417
2.60938,-0.0487348,0.106327
2.54009,0.0767203,-0.118375
2.59199,-0.04841,-0.135864
2.48216,0.196659,-0.101443
2.55414,0.0771449,-0.0594606
2.59825,-0.0580559,-0.0756354
2.5511,0.0676933,0
2.65707,-0.18953,-0.0310118
2.51288,0.066679,-0.391083
2.57458,-0.057527,-0.327792
2.50083,0.188916,0.0145763
2.60731,-0.0582582,-0.0151575
2.52053,0.066882,-0.271598
2.5664,0.0680993,0.0597397
2.66106,-0.189814,0.0310584
2.5409,0.0674226,-0.17774
2.58675,-0.0577989,-0.211222
2.50779,0.189441,0.0731918
2.61495,-0.058429,0.0456555
2.49575,0.188532,-0.160406
2.64479,-0.188654,-0.154417
2.57074,0.0682143,0.149766
2.61318,-0.0583895,0.10649
2.54434,0.067514,-0.118561
2.59978,-0.0580901,-0.136283
2.49482,0.188461,-0.101931
2.55441,0.0677811,-0.0594606
2.50912,0.180736,-0.0439103
2.60203,-0.0672277,-0.0757518
2.55532,0.0588808,0
2.66836,-0.199698,-0.0311515
2.51704,0.0579988,-0.391698
2.5823,-0.0667178,-0.328802
2.50547,0.180473,0.0145995
2.61508,-0.0675649,-0.015204
2.52075,0.0580841,-0.271598
2.57062,0.0592334,0.0598328
2.67234,-0.199997,0.0311981
2.54511,0.0586455,-0.178019
2.5204,0.181549,0.0735409
2.62273,-0.0677624,0.0457951
2.65208,-0.19848,-0.154882
2.61696,-0.0676133,0.106653
2.54456,0.0586329,-0.118561
2.60356,-0.0672671,-0.136492
2.58787,0.0596309,0.317835
2.50343,0.180327,-0.102257
2.55063,0.0587728,-0.0593675
2.50574,0.171703,-0.0438404
2.59778,-0.0761928,-0.0756354
2.55951,0.0500389,0
2.67163,-0.209324,-0.0311981
2.52514,0.0493669,-0.392927
2.51805,0.172547,0.0146693
2.61883,-0.0768101,-0.0152272
2.52491,0.0493624,-0.272027
2.64833,-0.207498,-0.247975
2.57081,0.0502599,0.0598328
2.67562,-0.209636,0.0312447
2.54929,0.049839,-0.178298
2.51703,0.172477,0.0734245
2.62247,-0.076917,0.0457951
2.50099,0.171378,-0.160661
2.65137,-0.207736,-0.154882
2.6207,-0.0768649,0.106816
2.54875,0.0498285,-0.118747
2.6073,-0.0764719,-0.136702
2.6341,-0.077258,0.215128
2.50803,0.17186,-0.10242
2.55482,0.0499472,-0.0594606
2.5183,0.163734,-0.0440499
2.60549,-0.0855226,-0.0758681
2.68284,-0.219627,-0.0313378
2.58573,-0.084874,-0.329308
2.51066,0.163237,0.0146228
2.62254,-0.0860823,-0.0152505
2.53302,0.0406763,-0.272883
2.65156,-0.217066,-0.248347
2.57497,0.0413499,0.0599259
2.67088,-0.218648,0.0311981
2.54147,0.0408119,-0.17774
2.5256,0.164208,0.0736572
2.62219,-0.0860706,0.0457951
2.50556,0.162905,-0.160917
2.66257,-0.217967,-0.15558
2.5793,0.0414194,0.150231
2.62441,-0.0861435,0.106979
2.5529,0.0409956,-0.118934
2.60302,-0.0854416,-0.136492
2.51261,0.163364,-0.102582
2.56298,0.0411573,-0.0596467
2.52279,0.156068,-0.0441197
2.60921,-0.0938513,-0.0759845
2.56779,0.0331659,0
2.67417,-0.227377,-0.0312447
2.52936,0.0326696,-0.393542
2.59338,-0.0932822,-0.330318
2.52713,0.156337,0.0147158
2.63025,-0.0946084,-0.015297
2.53313,0.0327184,-0.272883
2.65881,-0.22607,-0.24909
2.57909,0.0333119,0.0600189
2.67417,-0.227377,0.0312447
2.54956,0.0329305,-0.178298
2.52211,0.156026,0.0735409
2.6339,-0.0947393,0.0460045
2.51004,0.15528,-0.161173
2.66187,-0.226331,-0.15558
2.57941,0.0333161,0.150231
2.62812,-0.0945316,0.107142
2.56101,0.0330784,-0.119306
2.60673,-0.0937624,-0.136702
2.50114,0.154729,-0.102094
2.67809,-0.096329,0.488601
2.57109,0.0332086,-0.0598328
2.61684,-0.103731,-0.0762172
2.57189,0.0237913,0
2.68527,-0.238237,-0.0313844
2.53341,0.0234354,-0.394157
2.59699,-0.102944,-0.330823
2.5197,0.146608,0.0146693
2.54517,0.0235441,-0.274168
2.65399,-0.235462,-0.248718
2.58319,0.0238958,0.060112
2.68925,-0.23859,0.0314309
2.55365,0.0236226,-0.178577
2.52666,0.147013,0.0736572
2.63353,-0.104392,0.0460045
2.51059,0.146079,-0.161173
2.665,-0.236438,-0.155813
2.58351,0.0238988,0.150464
2.63175,-0.104322,0.107304
2.56511,0.0237286,-0.119492
2.51366,0.146257,-0.102582
2.68165,-0.1063,0.489318
2.57119,0.0237849,-0.0598328
2.62445,-0.113209,-0.0764499
2.57996,0.0148597,0
2.69239,-0.248343,-0.0314775
2.53743,0.0146147,-0.394772
2.52818,0.138249,0.0147158
2.6375,-0.113772,-0.0153435
2.54126,0.0146368,-0.27374
2.66109,-0.245456,-0.249462
2.59126,0.0149247,0.0602981
2.68841,-0.247976,0.0314309
2.55771,0.0147315,-0.178856
2.53514,0.138629,0.07389
2.64114,-0.113929,0.0461442
2.51508,0.137532,-0.161429
2.66813,-0.246106,-0.156045
2.58757,0.0149035,0.150696
2.57317,0.0148206,-0.119864
2.61234,0.0150462,0.32076
2.52214,0.137919,-0.102908
2.57126,0.0148096,-0.0598328
2.62404,-0.122369,-0.0764499
2.58399,0.00586291,0
2.69549,-0.258121,-0.0315241
2.60414,-0.121441,-0.331833
2.52865,0.129423,0.0147158
2.64109,-0.123165,-0.0153667
2.54129,0.00576602,-0.27374
2.65625,-0.254364,-0.24909
2.58729,0.00587039,0.060205
2.6915,-0.25774,0.0314775
2.56174,0.00581241,-0.179135
2.53561,0.129779,0.07389
2.64872,-0.12352,0.0462838
2.51953,0.128956,-0.161685
2.67123,-0.255799,-0.156278
2.63894,-0.123064,0.10763
2.56921,0.00582936,-0.119678
2.62155,-0.122253,-0.137539
2.61238,0.0059273,0.32076
2.52659,0.129318,-0.103071
2.5753,0.00584318,-0.0599259
2.53671,0.121403,-0.0443291
2.6316,-0.131469,-0.0766826
2.584,-0.00270596,0
2.6986,-0.267453,-0.0315706
2.53705,0.12142,0.0147623
2.54925,-0.00266957,-0.274597
2.66728,-0.264349,-0.250205
2.5873,-0.00270941,0.060205
2.69462,-0.267059,0.0315241
2.56174,-0.00268265,-0.179135
2.548,0.121944,0.074239
2.65229,-0.132503,0.0463536
2.51994,0.120601,-0.161685
2.67832,-0.265443,-0.156743
2.5956,-0.00271811,0.151161
2.64251,-0.132014,0.107793
2.5772,-0.00269884,-0.12005
2.62911,-0.131345,-0.137958
2.65982,-0.132879,0.217406
2.52701,0.120939,-0.103071
2.5793,-0.00270104,-0.0600189
2.6351,-0.141328,-0.076799
2.58797,-0.0121956,0
2.6976,-0.277342,-0.0315706
2.5493,-0.0120134,-0.396617
2.65214,-0.142242,-0.0154364
2.55718,-0.0120505,-0.275454
2.66233,-0.273716,-0.249834
2.59127,-0.0122112,0.0602981
2.70158,-0.277751,0.0316172
2.5697,-0.0121095,-0.179693
2.54444,0.112427,0.0741227
2.65178,-0.142223,0.0463536
2.52435,0.11154,-0.161941
2.68527,-0.276075,-0.157208
2.646,-0.141913,0.107956
2.58117,-0.0121636,-0.120236
2.62462,-0.140766,-0.137748
2.65932,-0.142627,0.217406
2.52344,0.1115,-0.102908
2.58327,-0.0121735,-0.060112
2.54551,0.103573,-0.0444687
2.59191,-0.0212621,0
2.70457,-0.287603,-0.0316637
2.54925,-0.0209121,-0.396617
2.54585,0.103587,0.0148088
2.64764,-0.151271,-0.0154132
2.55712,-0.0209767,-0.275454
2.66928,-0.28385,-0.250577
2.60321,-0.0213547,0.0605772
2.70854,-0.288026,0.0317103
2.56964,-0.0210793,-0.179693
2.54082,0.103382,0.0740063
2.65526,-0.151707,0.0464234
2.52473,0.102728,-0.161941
2.68429,-0.285447,-0.157208
2.61149,-0.0214226,0.152092
2.58111,-0.0211735,-0.120236
2.63209,-0.150383,-0.138167
2.5318,0.103016,-0.103234
2.58321,-0.0211907,-0.060112
2.54184,0.0949819,-0.0443989
2.65004,-0.160226,-0.0772645
2.59983,-0.0299492,0
2.71155,-0.297442,-0.0317569
2.54618,0.0951442,0.0148088
2.65111,-0.160291,-0.0154364
2.55306,-0.0294105,-0.275025
2.67624,-0.293569,-0.251321
2.61112,-0.0300793,0.0607633
2.71155,-0.297442,0.0317569
2.55713,0.0955534,0.0744718
2.66273,-0.160994,0.046563
2.53303,0.0946529,-0.162452
2.68333,-0.294346,-0.157208
2.65694,-0.160644,0.108444
2.58902,-0.0298247,-0.120609
2.64354,-0.159833,-0.138795
2.62809,-0.0302747,0.32271
2.6742,-0.161688,0.218708
2.53612,0.0947684,-0.103397
2.58713,-0.0298029,-0.060205
2.55016,0.0859344,-0.0445385
2.64943,-0.169938,-0.0772645
2.6037,-0.0395386,0
2.71442,-0.307829,-0.0318034
2.55051,0.085946,0.014832
2.66248,-0.170775,-0.0155062
2.56884,-0.0390092,-0.276739
2.67119,-0.302927,-0.250949
2.603,-0.0395279,0.0605772
2.72634,-0.309181,0.0319431
2.58539,-0.0392605,-0.180809
2.55347,0.0860458,0.0743554
2.67011,-0.171264,0.0467026
2.53735,0.0855027,-0.162708
2.69017,-0.305079,-0.157673
2.61127,-0.0396536,0.152092
2.66032,-0.170637,0.108607
2.58889,-0.0393137,-0.120609
2.64692,-0.169777,-0.139004
2.63193,-0.0399672,0.323198
2.67757,-0.171743,0.219033
2.54045,0.0856071,-0.103559
2.595,-0.0394064,-0.0603911
2.55045,0.0770321,-0.0445385
2.6568,-0.179725,-0.0774972
2.59955,-0.0485522,0
2.7173,-0.317767,-0.03185
2.5647,-0.0479013,-0.399076
2.55879,0.0772841,0.0148785
2.57664,-0.0481245,-0.277596
2.68198,-0.313637,-0.252064
2.61084,-0.0487631,0.0607633
2.72127,-0.318231,0.0318966
2.58524,-0.0482849,-0.180809
2.55775,0.0772527,0.0744718
2.67348,-0.180853,0.0467725
2.54162,0.0767656,-0.162964
2.68909,-0.314468,-0.157673
2.6637,-0.180192,0.10877
2.64631,-0.179015,-0.139004
2.63574,-0.0492283,0.323685
2.68093,-0.181358,0.219359
2.54473,0.0768594,-0.103722
2.59884,-0.0485391,-0.0604842
2.55469,0.0686816,-0.0446084
2.66417,-0.1891,-0.0777299
2.60737,-0.0573483,0
2.71623,-0.326776,-0.03185
2.56057,-0.056319,-0.398462
2.56703,0.0690134,0.014925
2.58045,-0.0567561,-0.278024
2.68488,-0.323005,-0.252436
2.61866,-0.0575966,0.0609494
2.72814,-0.328209,0.0319897
2.58905,-0.0569454,-0.181088
2.55799,0.0687705,0.0744718
2.67287,-0.189718,0.0467725
2.54187,0.0683369,-0.162964
2.69596,-0.324337,-0.158138
2.62292,-0.0576903,0.152789
2.66707,-0.189307,0.108933
2.60055,-0.0571983,-0.121167
2.65367,-0.188356,-0.139423
2.68032,-0.190247,0.219359
2.54497,0.0684203,-0.103722
2.59867,-0.0571569,-0.0604842
2.56291,0.0599507,-0.044748
2.66349,-0.198399,-0.0777299
2.61515,-0.0666532,0
2.71507,-0.336255,-0.03185
2.56431,-0.0653574,-0.399076
2.56326,0.0599588,0.0149017
2.67255,-0.199074,-0.0155759
2.58421,-0.0658645,-0.278452
2.68769,-0.332864,-0.252808
2.62244,-0.0668389,0.0610425
2.73095,-0.338222,0.0320363
2.59681,-0.0661858,-0.181646
2.56221,0.0599345,0.0745881
2.68017,-0.199641,0.0469121
2.54608,0.059557,-0.16322
2.70274,-0.334728,-0.158603
2.63069,-0.0670492,0.153254
2.67437,-0.199209,0.109258
2.64328,-0.0673702,0.32466
2.69156,-0.20049,0.220335
2.54919,0.0596298,-0.103885
2.60645,-0.0664314,-0.0606703
2.5591,0.0509246,-0.0446782
2.66677,-0.208006,-0.0778463
2.6229,-0.0760131,0
2.72578,-0.347247,-0.0319897
2.57592,-0.0746516,-0.400921
2.56745,0.0510906,0.014925
2.67583,-0.208713,-0.0155992
2.57999,-0.0747695,-0.278024
2.69442,-0.343251,-0.253551
2.63018,-0.0762242,0.0612286
2.73769,-0.348763,0.0321294
2.5704,0.0511494,0.0748209
2.68344,-0.209306,0.0469819
2.55026,0.0507486,-0.163475
2.68561,-0.209476,0.109747
2.60808,-0.0755835,-0.121539
2.66424,-0.207809,-0.140051
2.70277,-0.210814,0.221311
2.55737,0.0508901,-0.104211
2.6022,-0.0754133,-0.0605772
2.56326,0.0420569,-0.044748
2.66204,-0.216989,-0.0777299
2.63061,-0.0854279,0
2.73249,-0.357798,-0.0320828
2.57564,-0.0836428,-0.400921
2.68306,-0.218702,-0.0156457
2.58368,-0.0839039,-0.278452
2.6932,-0.352654,-0.253551
2.6259,-0.085275,0.0611355
2.74439,-0.359356,0.0322225
2.57057,0.0421767,0.0748209
2.69066,-0.219322,0.0471215
2.55441,0.0419117,-0.163731
2.70429,-0.354106,-0.158836
2.68088,-0.218524,0.109584
2.66748,-0.217432,-0.14026
2.65465,-0.0862086,0.326122
2.70202,-0.220247,0.221311
2.55753,0.0419629,-0.104211
2.60992,-0.0847558,-0.0607633
2.56739,0.033609,-0.0448178
2.67326,-0.226829,-0.078079
2.63032,-0.0941509,0
2.73525,-0.36739,-0.0321294
2.58325,-0.0924662,-0.402151
2.57974,0.0337706,0.0149947
2.6863,-0.227936,-0.0156689
2.59134,-0.0927558,-0.279309
2.69991,-0.362643,-0.254295
2.6376,-0.0944115,0.0614147
2.74318,-0.368455,0.0322225
2.60397,-0.0932079,-0.182204
2.57869,0.0337569,0.0750536
2.69391,-0.228581,0.0471913
2.71498,-0.364667,-0.159533
2.64183,-0.094563,0.153952
2.69209,-0.228427,0.110073
2.61549,-0.0936201,-0.121912
2.66674,-0.226277,-0.14026
2.71319,-0.230218,0.222288
2.56565,0.0335862,-0.104536
2.61761,-0.0936963,-0.0609494
2.57149,0.0246853,-0.0448876
2.67643,-0.236511,-0.0781954
2.62997,-0.103332,0
2.73791,-0.377482,-0.032176
2.58291,-0.101483,-0.402151
2.58384,0.0248038,0.015018
2.59895,-0.102113,-0.280166
2.70257,-0.37261,-0.254667
2.63725,-0.103618,0.0614147
2.75376,-0.379667,0.0323622
2.6116,-0.10261,-0.182762
2.69708,-0.238336,0.0472611
2.56262,0.0246002,-0.164243
2.71369,-0.374142,-0.159533
2.64148,-0.103784,0.153952
2.69127,-0.237822,0.110073
2.61914,-0.102906,-0.122098
2.65797,-0.104432,0.32661
2.7084,-0.239336,0.221962
2.55376,0.0245151,-0.104048
2.62127,-0.10299,-0.0610425
2.57556,0.0152839,-0.0449574
2.67953,-0.246686,-0.0783117
2.63357,-0.113142,0
2.74047,-0.388075,-0.0322225
2.59042,-0.111288,-0.403381
2.58791,0.0153571,0.0150412
2.69655,-0.248253,-0.0157387
2.60253,-0.111809,-0.280594
2.70908,-0.383629,-0.25541
2.64484,-0.113626,0.0616008
2.75235,-0.389758,0.0323622
2.6152,-0.112353,-0.183041
2.58286,0.0153272,0.0751699
2.70017,-0.248586,0.0473309
2.5627,0.0152075,-0.164243
2.72021,-0.385205,-0.159999
2.64906,-0.113808,0.154417
2.7063,-0.24915,0.110724
2.66947,-0.114685,0.328072
2.71148,-0.249627,0.222288
2.56583,0.0152261,-0.104536
2.62087,-0.112597,-0.0610425
2.5756,0.00674294,-0.0449574
2.68666,-0.25633,-0.0785444
2.64517,-0.12243,0
2.74313,-0.397735,-0.0322691
2.59004,-0.119878,-0.403381
2.58395,0.0067648,0.015018
2.69571,-0.257194,-0.0157387
2.59817,-0.120254,-0.280166
2.71173,-0.393182,-0.255782
2.65244,-0.122766,0.0617869
2.75896,-0.40003,0.0324553
2.67491,-0.255209,-0.219359
2.5869,0.00677252,0.0752863
2.70331,-0.257918,0.0474007
2.56273,0.00670926,-0.164243
2.71891,-0.394224,-0.159999
2.65266,-0.122776,0.15465
2.70546,-0.258123,0.110724
2.68411,-0.256087,-0.141307
2.67304,-0.12372,0.32856
2.7146,-0.258996,0.222613
2.56986,0.00672791,-0.104699
2.62048,-0.121287,-0.0610425
2.58361,-0.00270552,-0.045097
2.6857,-0.266175,-0.0785444
2.6487,-0.132323,0
2.75352,-0.409551,-0.0324088
2.59195,-0.00271426,0.0150645
2.70271,-0.267861,-0.0157852
2.60169,-0.129975,-0.280594
2.64399,-0.132088,0.0616008
2.76143,-0.410728,0.0325019
2.6263,-0.131205,-0.183878
2.5949,-0.00271735,0.075519
2.70633,-0.268219,0.0474705
2.57472,-0.00269621,-0.16501
2.72535,-0.405361,-0.160464
2.65219,-0.132498,0.15465
2.70052,-0.267644,0.110561
2.62587,-0.131183,-0.12247
2.6805,-0.133912,0.329535
2.72157,-0.26973,0.223264
2.57386,-0.00269532,-0.104862
2.62801,-0.13129,-0.0612286
2.58758,-0.0117421,-0.0451668
2.68873,-0.275956,-0.0786608
2.64822,-0.141568,0
2.75603,-0.419763,-0.0324553
2.59701,-0.138831,-0.404611
2.59993,-0.0117982,0.015111
2.60916,-0.13948,-0.281451
2.6515,-0.141743,0.0617869
2.75998,-0.420365,0.0325019
2.62583,-0.140371,-0.183878
2.59487,-0.0117752,0.075519
2.70935,-0.278073,0.0475404
2.57868,-0.0117018,-0.165266
2.73576,-0.416676,-0.161161
2.66766,-0.142608,0.15558
2.70752,-0.277885,0.110887
2.63338,-0.140775,-0.122842
2.68002,-0.143268,0.329535
2.73251,-0.280449,0.22424
2.58583,-0.0117342,-0.10535
2.63153,-0.140676,-0.0613216
2.59552,-0.0203856,-0.0453064
2.69973,-0.286135,-0.0790099
2.65173,-0.150576,0
2.75857,-0.429515,-0.0325019
2.59653,-0.147442,-0.404611
2.60388,-0.0204512,0.0151342
2.61662,-0.148583,-0.282308
2.76648,-0.430746,0.032595
2.62933,-0.149304,-0.184157
2.59482,-0.0203801,0.075519
2.58262,-0.0202843,-0.165522
2.73831,-0.42636,-0.161394
2.66718,-0.151453,0.15558
2.72248,-0.288547,0.111538
2.69717,-0.285864,-0.142144
2.68349,-0.15238,0.330022
2.73156,-0.289509,0.22424
2.58578,-0.0203091,-0.10535
2.64303,-0.150082,-0.0616008
2.69474,-0.295122,-0.0788935
2.65119,-0.159831,0
2.76101,-0.439771,-0.0325485
2.60389,-0.15698,-0.40584
2.59979,-0.029495,0.015111
2.62006,-0.157955,-0.282736
2.66644,-0.160751,0.0621591
2.76891,-0.441029,0.0326416
2.63676,-0.158962,-0.184715
2.68694,-0.294268,-0.22066
2.59873,-0.029483,0.0756354
2.71932,-0.297814,0.0477498
2.58653,-0.0293445,-0.165778
2.74864,-0.4378,-0.162092
2.66663,-0.160763,0.15558
2.72543,-0.298483,0.111701
2.70013,-0.295712,-0.142354
2.68294,-0.161746,0.330022
2.7345,-0.299476,0.224566
2.58569,-0.029335,-0.10535
2.64648,-0.159548,-0.0616939
2.59532,-0.0385052,-0.0453064
2.70164,-0.305425,-0.0791263
2.66259,-0.169849,0
2.7634,-0.450049,-0.032595
2.61122,-0.166572,-0.40707
2.60367,-0.0386291,0.0151342
2.61552,-0.166846,-0.282308
2.67384,-0.170566,0.0623452
2.77919,-0.45262,0.0327813
2.60661,-0.0386727,0.0758681
2.72224,-0.307754,0.0478196
2.58242,-0.0383137,-0.165522
2.67004,-0.170324,0.155813
2.73231,-0.308893,0.112026
2.64774,-0.168902,-0.123587
2.69029,-0.171616,0.330997
2.74136,-0.309915,0.225217
2.58957,-0.0384198,-0.105513
2.64191,-0.16853,-0.0616008
2.59917,-0.0476376,-0.0453763
2.70453,-0.315317,-0.0792426
2.66996,-0.179679,0
2.77365,-0.461662,-0.0327347
2.61851,-0.176216,-0.4083
2.60752,-0.0477906,0.0151575
2.72549,-0.317761,-0.0159479
2.62683,-0.176776,-0.283593
2.67323,-0.179899,0.0623452
2.78154,-0.462976,0.0328279
2.61046,-0.0478445,0.0759845
2.73307,-0.318644,0.048029
2.59424,-0.0475473,-0.16629
2.6774,-0.180179,0.156278
2.72725,-0.317966,0.111864
2.64315,-0.177875,-0.123401
2.7099,-0.315943,-0.142982
2.69363,-0.181272,0.331485
2.74422,-0.319944,0.225542
2.59741,-0.0476053,-0.105839
2.65328,-0.178556,-0.06188
2.60698,-0.0568845,-0.0455159
2.70341,-0.324755,-0.0792426
2.65735,-0.18815,0
2.77991,-0.472682,-0.0328279
2.61393,-0.185076,-0.407685
2.60734,-0.0568923,0.0151575
2.72437,-0.327273,-0.0159479
2.6262,-0.185945,-0.283593
2.68056,-0.189794,0.0625313
2.78385,-0.473353,0.0328744
2.64689,-0.18741,-0.185552
2.61827,-0.0571308,0.0762172
2.73591,-0.328659,0.0480988
2.59406,-0.0566026,-0.16629
2.75177,-0.467898,-0.162557
2.68472,-0.190088,0.156743
2.72612,-0.327484,0.111864
2.6465,-0.187382,-0.123587
2.71275,-0.325877,-0.143191
2.7009,-0.191234,0.33246
2.75496,-0.330948,0.226519
2.60522,-0.0568461,-0.106165
2.66062,-0.188382,-0.0620661
2.61077,-0.0660855,-0.0455857
2.71417,-0.335662,-0.0795917
2.67263,-0.198611,0
2.61721,-0.194492,-0.4083
2.61912,-0.0662969,0.0152272
2.63346,-0.1957,-0.28445
2.78612,-0.483751,0.032921
2.6502,-0.196944,-0.185831
2.70631,-0.334691,-0.222613
2.61006,-0.0660676,0.0759845
2.692,-0.20005,0.157208
2.74083,-0.33896,0.112515
2.6538,-0.197211,-0.123959
2.71159,-0.335344,-0.143191
2.70418,-0.200955,0.332947
2.75379,-0.340563,0.226519
2.60101,-0.0658385,-0.106002
2.66792,-0.198261,-0.0622522
2.61853,-0.0749716,-0.0457253
2.717,-0.345165,-0.0797081
2.67595,-0.207782,0
2.78057,-0.49229,-0.0328744
2.62443,-0.203782,-0.40953
2.61888,-0.0749818,0.0152272
2.63676,-0.20474,-0.284878
2.68718,-0.208655,0.0627174
2.79238,-0.494382,0.0330141
2.65749,-0.206349,-0.186389
2.70519,-0.343663,-0.222613
2.62182,-0.0750657,0.0763336
2.73758,-0.347778,0.0481686
2.60159,-0.0744868,-0.166801
2.69531,-0.209285,0.15744
2.74365,-0.34855,0.112678
2.6611,-0.206629,-0.124331
2.71142,-0.210536,0.333922
2.7566,-0.350195,0.226844
2.60477,-0.0745777,-0.106165
2.66725,-0.207107,-0.0622522
2.62226,-0.0837823,-0.0457951
2.71981,-0.35469,-0.0798244
2.68322,-0.2173,0
2.79466,-0.50435,-0.0330607
2.63162,-0.213122,-0.41076
2.61862,-0.0836659,0.0152272
2.74075,-0.35742,-0.0160641
2.64004,-0.213803,-0.285307
2.79466,-0.50435,0.0330607
2.71589,-0.354179,-0.22359
2.61756,-0.0836319,0.0762172
2.74831,-0.358406,0.0483781
2.60532,-0.0832411,-0.167057
2.6946,-0.218222,0.15744
2.75437,-0.359197,0.113166
2.66836,-0.216097,-0.124703
2.72119,-0.35487,-0.143819
2.71466,-0.219847,0.33441
2.6125,-0.0834703,-0.10649
2.67053,-0.216273,-0.0623452
2.62195,-0.0929352,-0.0457951
2.71855,-0.364181,-0.0798244
2.68643,-0.227002,0
2.80075,-0.51555,-0.0331538
2.6348,-0.22264,-0.411375
2.62631,-0.0930895,0.0152737
2.63927,-0.223018,-0.285307
2.69765,-0.227951,0.0629966
2.80469,-0.516274,0.0332004
2.66398,-0.225105,-0.186947
2.63723,-0.0934765,0.076799
2.75497,-0.369059,0.0485177
2.61299,-0.0926177,-0.167569
2.69382,-0.227627,0.15744
2.7531,-0.36881,0.113166
2.66759,-0.225411,-0.124703
2.7239,-0.364897,-0.144029
2.72179,-0.22999,0.335384
2.61619,-0.0927307,-0.106653
2.68172,-0.226604,-0.0626244
2.62959,-0.102857,-0.0459347
2.72116,-0.374688,-0.0799408
2.68159,-0.236495,0
2.79884,-0.525812,-0.0331538
2.63397,-0.232295,-0.411375
2.63794,-0.103184,0.0153435
2.65032,-0.233738,-0.286592
2.79884,-0.525812,0.0331538
2.66711,-0.235218,-0.187226
2.63287,-0.102986,0.0766826
2.70092,-0.2382,0.157906
2.75965,-0.379988,0.113492
2.67073,-0.235537,-0.12489
2.72254,-0.374878,-0.144029
2.71697,-0.239616,0.334897
2.61982,-0.102475,-0.106816
2.68087,-0.236431,-0.0626244
2.63323,-0.111746,-0.0460045
2.68478,-0.245751,0
2.79708,-0.53509,-0.0331538
2.63318,-0.241029,-0.411375
2.63758,-0.111931,0.0153435
2.64557,-0.242163,-0.286163
2.80887,-0.537345,0.0332935
2.67426,-0.244789,-0.187784
2.71993,-0.383714,-0.22424
2.63651,-0.111885,0.076799
2.7642,-0.38996,0.0487271
2.70807,-0.247884,0.158371
2.76629,-0.390254,0.113818
2.67789,-0.245121,-0.125262
2.72919,-0.38502,-0.144447
2.73198,-0.250072,0.336847
2.61547,-0.110993,-0.106653
2.73438,-0.395491,-0.0804062
2.69187,-0.255878,0
2.80698,-0.547147,-0.0332935
2.63717,-0.121137,0.0153435
2.75528,-0.398515,-0.0161804
2.64867,-0.251772,-0.286592
2.81876,-0.549442,0.0334332
2.72646,-0.394347,-0.224891
2.6361,-0.121088,0.076799
2.75887,-0.399033,0.0486573
2.61986,-0.120342,-0.16808
2.71514,-0.258091,0.158836
2.76887,-0.40048,0.11398
2.68099,-0.254845,-0.125448
2.73574,-0.395688,-0.144866
2.63104,-0.120855,-0.107304
2.69114,-0.255809,-0.0629035
2.74082,-0.406684,-0.080639
2.69887,-0.266529,0
2.80888,-0.558211,-0.0333401
2.6447,-0.131198,0.0153899
2.76172,-0.409785,-0.0162269
2.68038,-0.264703,-0.188342
2.72895,-0.404922,-0.225217
2.64762,-0.131343,0.0771481
2.76925,-0.410904,0.0488667
2.70623,-0.267256,0.158371
2.77133,-0.411212,0.114143
2.68402,-0.265062,-0.125634
2.73822,-0.406299,-0.145075
2.69018,-0.265671,-0.0629035
2.64786,-0.140622,-0.0462838
2.73938,-0.416249,-0.080639
2.7019,-0.276355,0
2.82259,-0.571185,-0.0335263
2.64423,-0.140429,0.0153899
2.76818,-0.420625,-0.0162734
2.65867,-0.271933,-0.287877
2.71311,-0.277501,0.0634618
2.64715,-0.140584,0.0771481
2.77176,-0.421168,0.0489365
2.6269,-0.139509,-0.168592
2.72117,-0.278326,0.159301
2.77383,-0.421484,0.114306
2.695,-0.275649,-0.126192
2.74469,-0.417055,-0.145494
2.69322,-0.275467,-0.0629966
2.74194,-0.425945,-0.0807553
2.69699,-0.284893,0
2.82852,-0.582155,-0.0336195
2.65174,-0.149648,0.0154364
2.66171,-0.281166,-0.288305
2.68249,-0.283361,-0.188622
2.65465,-0.149812,0.0773808
2.7743,-0.430972,0.0490064
2.7242,-0.287767,0.159533
2.77637,-0.431293,0.114469
2.69407,-0.284585,-0.126192
2.73934,-0.425541,-0.145285
2.69626,-0.284816,-0.0630896
2.74833,-0.436768,-0.080988
2.70394,-0.295174,0
2.65519,-0.159143,0.0154597
2.77315,-0.440713,-0.0163199
2.67257,-0.29175,-0.28959
2.69338,-0.294022,-0.189459
2.65411,-0.159078,0.0773808
2.77673,-0.441281,0.0490762
2.72715,-0.297708,0.159766
2.78669,-0.442864,0.114957
2.69306,-0.293987,-0.126192
2.74573,-0.436354,-0.145703
2.64506,-0.158535,-0.107956
2.70718,-0.295528,-0.0633688
2.75855,-0.448765,-0.0813371
2.71476,-0.306428,0
2.65858,-0.169127,0.0154829
2.77547,-0.451516,-0.0163431
2.67148,-0.301544,-0.28959
2.68832,-0.303444,-0.18918
2.66548,-0.169566,0.0777299
2.78299,-0.452739,0.0492158
2.73398,-0.308597,0.160231
2.78899,-0.453716,0.11512
2.69991,-0.304752,-0.126565
2.75594,-0.448339,-0.146331
2.71005,-0.305897,-0.0634618
2.66167,-0.177721,-0.046563
2.76896,-0.459392,-0.0816862
2.71776,-0.315417,0
2.66602,-0.178011,0.0155294
2.77798,-0.460888,-0.0163664
2.67052,-0.309935,-0.28959
2.69925,-0.313268,-0.190017
2.67291,-0.178472,0.0779626
2.78549,-0.462135,0.0492856
2.72903,-0.316725,0.159999
2.70688,-0.314154,-0.126937
2.75846,-0.457649,-0.146541
2.65189,-0.177068,-0.108281
2.70511,-0.313948,-0.0633688
2.7634,-0.468386,-0.0815699
2.72458,-0.325852,0
2.67336,-0.187877,0.0155759
2.78818,-0.472587,-0.0164361
2.67732,-0.320199,-0.290447
2.73576,-0.327188,0.0641132
2.69814,-0.322689,-0.190017
2.67626,-0.188081,0.078079
2.79964,-0.474528,0.0495648
2.73584,-0.327197,0.160464
2.7018,-0.323126,-0.126751
2.76472,-0.46861,-0.146959
2.71988,-0.325289,-0.063741
2.76946,-0.48036,-0.0818026
2.72331,-0.336311,0
2.67262,-0.198141,0.0155759
2.79029,-0.483973,-0.0164593
2.68002,-0.330965,-0.290876
2.73845,-0.33818,0.0642063
2.70084,-0.333535,-0.190296
2.6835,-0.198947,0.0783117
2.79779,-0.485275,0.0495648
2.65127,-0.196558,-0.170383
2.74249,-0.338678,0.160929
2.70847,-0.334477,-0.127123
2.7629,-0.479222,-0.146959
2.72654,-0.33671,-0.0639271
2.67554,-0.20775,-0.0468423
2.77564,-0.491419,-0.0820353
2.72212,-0.345815,0
2.67989,-0.208088,0.0156224
2.79252,-0.494408,-0.0164826
2.69069,-0.341821,-0.292161
2.70362,-0.343464,-0.190575
2.67481,-0.207694,0.078079
2.8079,-0.49713,0.0497743
2.65853,-0.20643,-0.170895
2.74921,-0.349256,0.161394
2.72314,-0.345944,-0.127868
2.76908,-0.490256,-0.147378
2.66177,-0.206682,-0.10877
2.72139,-0.345721,-0.0638341
2.78195,-0.501555,-0.082268
2.73292,-0.355915,0
2.67922,-0.216506,0.0156224
2.79489,-0.503888,-0.0165058
2.69354,-0.350786,-0.292589
2.75201,-0.3584,0.0645785
2.71439,-0.353502,-0.191412
2.6861,-0.217062,0.0784281
2.80632,-0.505948,0.0497743
2.75206,-0.358407,0.161626
2.726,-0.355013,-0.128054
2.73218,-0.355818,-0.0641132
2.68203,-0.226631,-0.0469819
2.79189,-0.513919,-0.0826171
2.73556,-0.36646,0
2.6824,-0.226662,0.0156457
2.80483,-0.516301,-0.0165756
2.75464,-0.369016,0.0646715
2.71704,-0.363978,-0.191691
2.69326,-0.227579,0.0786608
2.80838,-0.516955,0.0498441
2.75073,-0.368491,0.161626
2.72864,-0.365533,-0.12824
2.67623,-0.226141,-0.109421
2.73482,-0.366361,-0.0642063
2.78999,-0.524149,-0.0826171
2.74609,-0.378121,0
2.68952,-0.237194,0.0156922
2.80685,-0.527316,-0.0165988
2.75723,-0.379655,0.0647646
2.71568,-0.373934,-0.191691
2.70037,-0.238152,0.0788935
2.75331,-0.379115,0.161859
2.73124,-0.376076,-0.128426
2.67937,-0.236299,-0.109584
2.73742,-0.376927,-0.0642993
2.79226,-0.533662,-0.0827335
2.74489,-0.386746,0
2.69672,-0.24637,0.0157387
2.81696,-0.538384,-0.0166686
2.75998,-0.388873,0.0648576
2.7224,-0.383577,-0.192249
2.69961,-0.246634,0.0788935
2.75606,-0.38832,0.162092
2.734,-0.385212,-0.128612
2.74019,-0.386083,-0.0643924
2.79823,-0.544934,-0.0829662
2.74748,-0.396897,0
2.70381,-0.256538,0.0157852
2.81899,-0.548978,-0.0166918
2.76653,-0.399648,0.0650437
2.72894,-0.394219,-0.192807
2.70271,-0.256433,0.0790099
2.76655,-0.399651,0.162789
2.74055,-0.395896,-0.128984
2.74674,-0.39679,-0.0645785
2.80415,-0.556254,-0.0831989
2.76191,-0.408828,0
2.7029,-0.265974,0.0157852
2.82491,-0.560372,-0.0167383
2.76907,-0.409888,0.0651368
2.73149,-0.404326,-0.193086
2.71374,-0.267041,0.079359
2.76908,-0.409891,0.163022
2.74706,-0.40663,-0.129357
2.74929,-0.406961,-0.0646715
2.76039,-0.418948,0
2.70987,-0.276692,0.0158317
2.82676,-0.571514,-0.0167616
2.77546,-0.421235,0.0653229
2.73394,-0.414934,-0.193365
2.71672,-0.277391,0.0794753
2.68848,-0.274508,-0.173197
2.75345,-0.417895,-0.129729
2.69574,-0.275249,-0.110398
2.75569,-0.418235,-0.0648576
2.70857,-0.285638,-0.0475404
2.76689,-0.429326,0
2.71689,-0.286515,0.0158782
2.82876,-0.581691,-0.0167848
2.77404,-0.430436,0.0653229
2.74832,-0.426445,-0.194481
2.71976,-0.286818,0.0795917
2.7481,-0.426411,-0.129543
2.69878,-0.284606,-0.110561
2.75429,-0.427371,-0.0648576
2.7075,-0.295563,-0.0475404
2.76925,-0.440092,0
2.7198,-0.296905,0.0159014
2.7843,-0.442484,0.0656021
2.73886,-0.435263,-0.193923
2.72267,-0.297219,0.0797081
2.75441,-0.437734,-0.129915
2.75665,-0.43809,-0.0649507
2.77575,-0.45007,0
2.78684,-0.451869,0.0656951
2.74929,-0.445781,-0.19476
2.72172,-0.305771,0.0797081
2.75697,-0.447025,-0.130101
2.70473,-0.303862,-0.110887
2.7671,-0.448668,-0.0652298
2.78205,-0.461065,0
2.72858,-0.31619,0.0799408
2.70035,-0.312919,-0.17422
2.76721,-0.458606,-0.130659
2.77341,-0.459632,-0.0654159
2.72423,-0.325327,-0.0478894
2.73254,-0.326319,0.0159944
2.73937,-0.327135,0.0802899
2.70717,-0.32329,-0.174732
2.76785,-0.468643,-0.0653229
2.72698,-0.335798,-0.0479592
2.80551,-0.485605,0.0662534
2.74609,-0.33815,0.0805226
2.77567,-0.48044,-0.131218
2.71721,-0.334594,-0.111538
2.78187,-0.481513,-0.0656951
2.72976,-0.345817,-0.048029
2.79668,-0.494137,0
2.80774,-0.496091,0.0663465
2.74489,-0.347734,0.0805226
2.71667,-0.344159,-0.1755
2.78411,-0.491916,-0.0657882
2.73647,-0.356377,-0.0481686
2.80281,-0.505316,0
2.80993,-0.506598,0.0664395
2.74762,-0.357829,0.080639
2.71941,-0.354155,-0.175755
2.78405,-0.501933,-0.131776
2.72669,-0.355104,-0.112026
2.78238,-0.501631,-0.0657882
2.80899,-0.516053,0
2.74754,-0.367088,0.0161106
2.75039,-0.367468,0.0807553
2.72218,-0.3637,-0.176011
2.7255,-0.364144,-0.112026
2.79643,-0.513746,-0.0661604
2.73794,-0.375539,-0.0482385
2.8111,-0.526591,0
2.75417,-0.377764,0.0161571
2.75305,-0.37761,0.0808717
2.7288,-0.374284,-0.176523
2.73213,-0.374741,-0.112352
2.79069,-0.522768,-0.0660673
2.74447,-0.386687,-0.0483781
2.81701,-0.538393,0
2.7556,-0.388256,0.080988
2.74261,-0.386425,-0.112841
2.79268,-0.533743,-0.0661604
2.74706,-0.396837,-0.0484479
2.81512,-0.548223,0
2.75819,-0.398444,0.0811044
2.7379,-0.395514,-0.17729
2.7452,-0.396568,-0.113003
2.80258,-0.545781,-0.0664395
2.75364,-0.407114,-0.0485875
2.82505,-0.559888,0
2.76081,-0.408173,0.0812208
2.74387,-0.405669,-0.113003
2.80468,-0.555849,-0.0665326
2.75609,-0.417803,-0.0486573
2.8269,-0.571031,0
2.76832,-0.419658,0.0162734
2.7672,-0.419488,0.0814535
2.73902,-0.415216,-0.177546
2.74632,-0.416322,-0.113166
2.76259,-0.428165,-0.0487969
2.77087,-0.429449,0.0162966
2.7737,-0.429887,0.0816862
2.74552,-0.42552,-0.178058
2.75282,-0.426651,-0.113492
2.76898,-0.439059,-0.0489365
2.78008,-0.440818,0.0819189
2.7519,-0.436351,-0.178569
2.76316,-0.438136,-0.11398
2.78641,-0.4518,0.0821517
2.7543,-0.446593,-0.178825
2.78998,-0.461878,0.0164361
2.78096,-0.460384,0.0820353
2.76011,-0.456934,-0.11398
2.78432,-0.471433,0.0164128
2.78713,-0.471909,0.082268
2.77024,-0.469048,-0.114469
2.78228,-0.481084,-0.0492856
2.79449,-0.483194,0.0164826
2.79729,-0.483679,0.0826171
2.77646,-0.480078,-0.114795
2.7924,-0.492879,-0.049495
2.80066,-0.494336,0.0165291
2.78658,-0.49185,-0.115283
2.80294,-0.504329,0.0165523
2.81297,-0.516276,0.0166221
2.81322,-0.536651,0.0166453
