2.36279,0.316103,-0.0277523
2.16835,0.622585,0.0131117
2.20294,0.517507,-0.243753
2.33693,0.312644,-0.220092
2.24234,0.526761,0.0535983
2.37072,0.317164,0.0278455
2.17131,0.623435,0.0657446
2.30893,0.424601,0.0409782
2.16011,0.620219,-0.144032
2.34312,0.313472,-0.137673
2.24692,0.527839,0.134417
2.2995,0.422868,0.095255
2.22495,0.522678,-0.106463
2.2904,0.421194,-0.122047
2.31338,0.425421,0.19202
2.23455,0.524932,-0.0534122
2.29009,0.412878,-0.0677228
2.23308,0.516367,0
2.36784,0.30837,-0.0277989
2.17436,0.616102,0.0131349
2.21248,0.511606,-0.24461
2.33406,0.30397,-0.21972
2.24806,0.519831,0.0536913
2.37181,0.308886,0.0278455
2.22375,0.514211,-0.159603
2.17732,0.616942,0.065861
2.35212,0.306322,-0.138138
2.24875,0.519992,0.134417
2.30883,0.416256,0.0955807
2.22676,0.514908,-0.106463
2.28792,0.412487,-0.121838
2.3227,0.418757,0.192671
2.23637,0.517129,-0.0534122
2.29152,0.404882,-0.0677228
2.24657,0.511232,0
2.3689,0.300103,-0.0277989
2.1765,0.608509,0.0131349
2.21813,0.504762,-0.245038
2.34301,0.296822,-0.220463
2.25376,0.512869,0.0537844
2.37684,0.301108,0.027892
2.35713,0.298612,-0.138371
2.25445,0.513026,0.13465
2.31027,0.408195,0.0955807
2.23244,0.508019,-0.106649
2.29328,0.405194,-0.122047
2.17473,0.608015,-0.0919985
2.3008,0.398244,-0.0679555
2.25224,0.504261,0
2.37788,0.292809,-0.027892
2.17861,0.600907,0.0131349
2.21988,0.497016,-0.245038
2.35193,0.289614,-0.221207
2.38185,0.293298,0.0279386
2.18543,0.602789,0.0659773
2.32507,0.402445,0.0411877
2.17419,0.599687,-0.144544
2.36213,0.290869,-0.138603
2.26012,0.506025,0.134883
2.31956,0.401491,0.0959064
2.2381,0.501095,-0.106835
2.30256,0.398548,-0.122466
2.17684,0.600419,-0.0919985
2.18812,0.595319,-0.0395821
2.30612,0.390879,-0.0680718
2.25789,0.497257,0
2.37889,0.284507,-0.027892
2.18455,0.594349,0.0131582
2.22549,0.49012,-0.245466
2.35688,0.281876,-0.221579
2.38683,0.285457,0.0279852
2.19138,0.596207,0.0660937
2.3304,0.394995,0.0412575
2.36313,0.282623,-0.138603
2.26187,0.498133,0.134883
2.32488,0.39406,0.0960692
2.30787,0.391176,-0.122675
2.18278,0.593867,-0.0921613
2.24947,0.495402,-0.0535983
2.30352,0.382173,-0.0679555
2.25961,0.489373,0
2.38781,0.277125,-0.0279852
2.18661,0.586721,0.0131582
2.23107,0.483191,-0.245895
2.35785,0.273648,-0.221579
2.26291,0.490087,0.0538774
2.38781,0.277125,0.0279852
2.23851,0.484802,-0.160161
2.19345,0.588554,0.0660937
2.33571,0.387513,0.0413273
2.36807,0.274833,-0.138836
2.32625,0.385943,0.0960692
2.24545,0.486305,-0.107022
2.31316,0.383772,-0.122885
2.33619,0.387592,0.193322
2.1887,0.58728,-0.0923241
2.2551,0.488394,-0.0536913
2.30879,0.37477,-0.0680718
2.26131,0.481481,0
2.39274,0.269235,-0.0280317
2.19252,0.580107,0.0131814
2.22885,0.474571,-0.245466
2.3588,0.265415,-0.221579
2.26852,0.483017,0.0539705
2.38876,0.268787,0.0279852
2.248,0.478647,-0.160719
2.19549,0.580894,0.0660937
2.341,0.379998,0.0413971
2.36901,0.266565,-0.138836
2.2692,0.483162,0.135115
2.33547,0.3791,0.0963948
2.25104,0.479296,-0.107208
2.31055,0.375055,-0.122675
2.3454,0.380712,0.193973
2.31403,0.367336,-0.0681882
2.27081,0.475224,0
2.38571,0.260014,-0.0279386
2.2206,0.464718,-0.352958
2.20227,0.57447,0.0132279
2.23828,0.468418,-0.246323
2.37158,0.258475,-0.222694
2.27802,0.476734,0.0541566
2.39764,0.261314,0.0280783
2.24965,0.470797,-0.160719
2.31128,0.366898,-0.191044
2.37787,0.25916,-0.139301
2.27869,0.476874,0.13558
2.33678,0.370946,0.0963948
2.25661,0.472254,-0.107394
2.31184,0.366988,-0.122675
2.34671,0.372523,0.193973
2.19275,0.571986,-0.0923241
2.31524,0.359659,-0.0681882
2.27237,0.467691,0
2.39451,0.252941,-0.0280317
2.22987,0.458944,-0.354188
2.20416,0.567163,0.0132279
2.24372,0.461794,-0.246752
2.37639,0.251027,-0.223066
2.40645,0.254202,0.0281714
2.21101,0.568925,0.0664428
2.34353,0.364054,0.0413971
2.38665,0.252111,-0.139766
2.28026,0.469315,0.13558
2.338,0.363194,0.0963948
2.25817,0.464768,-0.107394
2.32094,0.360545,-0.123094
2.35187,0.36535,0.194298
2.1985,0.565706,-0.0924869
2.21358,0.561355,-0.0398613
2.32439,0.352775,-0.0684209
2.27399,0.459755,0
2.4113,0.246206,-0.028218
2.20613,0.559465,0.0132279
2.24532,0.453958,-0.246752
2.38518,0.243539,-0.223809
2.40732,0.2458,0.0281714
2.25672,0.456263,-0.160998
2.21298,0.561203,0.0664428
2.3527,0.357071,0.0415367
2.38752,0.243778,-0.139766
2.28188,0.461352,0.13558
2.34715,0.35623,0.0967205
2.26761,0.458465,-0.107766
2.32218,0.352441,-0.123094
2.36102,0.358335,0.194949
2.20434,0.559011,-0.0926498
2.26945,0.458838,-0.0538774
2.27966,0.451799,0
2.41621,0.237337,-0.0282646
2.21214,0.551959,0.0132512
2.25095,0.446107,-0.24718
2.38609,0.234379,-0.223809
2.29081,0.454009,0.0543427
2.41223,0.236946,0.028218
2.26628,0.449147,-0.161556
2.32688,0.344019,-0.19202
2.219,0.55367,0.0665591
2.35801,0.34862,0.0416065
2.40036,0.23578,-0.140464
2.29539,0.454916,0.136278
2.3485,0.347215,0.0967205
2.25759,0.447425,-0.107208
2.33537,0.345275,-0.123722
2.36238,0.349267,0.194949
2.21034,0.551511,-0.0928126
2.27904,0.451676,-0.0540635
2.33075,0.337112,-0.0685373
2.27714,0.44387,0
2.42092,0.230124,-0.0283111
2.22163,0.546919,0.0132977
2.25234,0.439034,-0.24718
2.39078,0.227259,-0.224181
2.29615,0.447575,0.0544357
2.41296,0.229367,0.028218
2.26768,0.442025,-0.161556
2.22849,0.548608,0.0667919
2.35513,0.340639,0.0415367
2.39314,0.227483,-0.139999
2.29289,0.446939,0.136045
2.35354,0.340408,0.0968833
2.27075,0.442624,-0.107766
2.32854,0.336793,-0.123304
2.37135,0.342985,0.1956
2.21595,0.54552,-0.0929754
2.33587,0.329532,-0.0686537
2.27868,0.435918,0
2.41773,0.221307,-0.0282646
2.24771,0.429993,-0.356033
2.21964,0.538218,0.0132744
2.25385,0.431169,-0.24718
2.39553,0.219275,-0.224553
2.30163,0.440308,0.0545288
2.41773,0.221307,0.0282646
2.26921,0.434106,-0.161556
2.33306,0.329136,-0.192346
2.22651,0.539883,0.0666755
2.40187,0.219855,-0.140464
2.29836,0.439682,0.136278
2.35867,0.332749,0.0970462
2.27621,0.435446,-0.107952
2.34157,0.330336,-0.123932
2.21395,0.536839,-0.0928126
2.28984,0.438054,-0.0542496
2.34102,0.321513,-0.06877
2.28812,0.429038,0
2.42649,0.213144,-0.0283577
2.25316,0.422481,-0.356648
2.22549,0.531007,0.0132977
2.25933,0.423638,-0.247608
2.40425,0.211191,-0.225296
2.42649,0.213144,0.0283577
2.27863,0.427257,-0.162114
2.23236,0.532648,0.0667919
2.36939,0.32541,0.0417462
2.41857,0.212449,-0.141394
2.3078,0.432728,0.136743
2.37175,0.325733,0.0975347
2.28172,0.427837,-0.108138
2.34672,0.322296,-0.124141
2.3777,0.32655,0.195926
2.21979,0.529649,-0.0929754
2.29144,0.429659,-0.0542496
2.23472,0.525384,-0.0400707
2.35,0.31481,-0.0690027
2.2974,0.422895,0
2.43117,0.205433,-0.0284042
2.23502,0.525455,0.0133442
2.37078,0.317593,-0.0139021
2.26463,0.416863,-0.248037
2.31251,0.425677,0.0547149
2.43516,0.20577,0.0284508
2.3432,0.313899,-0.192997
2.2419,0.527071,0.0670246
2.37442,0.318081,0.041816
2.22271,0.522561,-0.146335
2.41529,0.20409,-0.141162
2.37282,0.317866,0.0975347
2.28312,0.420267,-0.108138
2.35174,0.315042,-0.12435
2.38272,0.319192,0.196251
2.22932,0.524113,-0.0933011
2.29678,0.422781,-0.0543427
2.35109,0.306605,-0.0690027
2.3028,0.415584,0
2.43985,0.197591,-0.0284974
2.23295,0.516748,0.0133209
2.37584,0.309833,-0.0139253
2.26999,0.409662,-0.248465
2.4096,0.195142,-0.225668
2.31398,0.417602,0.0547149
2.43187,0.196946,0.0284042
2.28934,0.413155,-0.162672
2.23983,0.518341,0.0669082
2.37949,0.310308,0.0418858
2.41996,0.195981,-0.141394
2.31462,0.417718,0.136976
2.37391,0.309582,0.0975347
2.28458,0.412296,-0.108138
2.35678,0.307348,-0.12456
2.29636,0.406151,0
2.4485,0.189692,-0.0285905
2.24644,0.511616,0.0133907
2.38088,0.302042,-0.0139486
2.27532,0.402429,-0.248894
2.41027,0.18673,-0.225668
2.31937,0.41022,0.054808
2.28291,0.403771,-0.162114
2.35325,0.298537,-0.193647
2.24942,0.512296,0.067141
2.38055,0.302001,0.0418858
2.4286,0.18815,-0.141859
2.31607,0.409636,0.136976
2.38291,0.3023,0.0978603
2.28994,0.405015,-0.108324
2.35784,0.29912,-0.12456
2.23682,0.509426,-0.0934639
2.36508,0.291652,-0.0693518
2.30959,0.40018,0
2.44914,0.181143,-0.0285905
2.27045,0.393399,-0.358492
2.24431,0.502896,0.0133674
2.28455,0.395842,-0.24975
2.42679,0.17949,-0.227155
2.44516,0.180848,0.0285439
2.29217,0.397162,-0.162672
2.2512,0.50444,0.067141
2.3935,0.295157,0.0420952
2.43322,0.179965,-0.142092
2.32535,0.402912,0.137441
2.38395,0.293979,0.0978603
2.29921,0.398383,-0.108697
2.3668,0.291864,-0.124978
2.23469,0.50074,-0.0933011
2.31491,0.392786,0
2.44976,0.172594,-0.0285905
2.24996,0.49592,0.0133907
2.28199,0.3872,-0.249322
2.4274,0.171018,-0.227155
2.33006,0.395355,0.0549941
2.44976,0.172594,0.0285905
2.29747,0.389826,-0.162951
2.36319,0.283049,-0.194298
2.25685,0.49744,0.0672573
2.39452,0.286801,0.0420952
2.32675,0.394793,0.137441
2.3929,0.286607,0.098186
2.30847,0.391692,-0.109069
2.3678,0.283601,-0.124978
2.40278,0.28779,0.197553
2.24032,0.493797,-0.0934639
2.31823,0.393348,-0.0547149
2.25919,0.489691,-0.04035
2.37897,0.276518,-0.0697009
2.32022,0.385357,0
2.46232,0.164842,-0.0287302
2.25558,0.48891,0.0134139
2.38391,0.277093,-0.0139486
2.28726,0.379883,-0.24975
2.43593,0.163076,-0.227899
2.45434,0.164308,0.0286371
2.30669,0.383111,-0.163509
2.25857,0.489559,0.0672573
2.39948,0.278902,0.042165
2.43442,0.162974,-0.142092
2.40182,0.279175,0.0985116
2.31376,0.384285,-0.109255
2.38068,0.276718,-0.125606
2.35384,0.390941,0.292974
2.40773,0.279861,0.197878
2.24594,0.48682,-0.0936268
2.31564,0.384598,-0.0546219
2.32944,0.37854,0
2.46687,0.1565,-0.0287768
2.2651,0.482702,0.0134604
2.39679,0.270114,-0.0140183
2.28857,0.371897,-0.24975
2.43251,0.15432,-0.227527
2.34066,0.380362,0.0551802
2.46687,0.1565,0.0287768
2.31195,0.375698,-0.163788
2.26418,0.482506,0.0673737
2.40839,0.271421,0.0423046
2.45091,0.155487,-0.143022
2.33733,0.379821,0.137906
2.39881,0.270342,0.0983488
2.31509,0.376207,-0.109255
2.38163,0.268406,-0.125606
2.35519,0.382723,0.292974
2.25544,0.480644,-0.0939524
2.32487,0.377796,-0.054808
2.37687,0.259469,-0.0695846
2.3268,0.369778,0
2.47539,0.148366,-0.0288699
2.27069,0.475612,0.0134836
2.40169,0.262179,-0.0140416
2.29771,0.365154,-0.250607
2.44496,0.146542,-0.228642
2.33802,0.371561,0.0550871
2.30931,0.366998,-0.163509
2.26976,0.475418,0.06749
2.41329,0.263446,0.0423744
2.25435,0.472191,-0.147614
2.45543,0.147169,-0.143255
2.33864,0.371659,0.137906
2.40769,0.262834,0.0986745
2.32428,0.369377,-0.109627
2.37859,0.259657,-0.125397
2.41755,0.26391,0.198529
2.25711,0.472767,-0.0939524
2.33012,0.370305,-0.054901
2.38567,0.252428,-0.0698173
2.33197,0.362675,0
2.47187,0.139931,-0.0288233
2.27225,0.46808,0.0134836
2.4105,0.255056,-0.0140881
2.30284,0.358144,-0.251036
2.44941,0.138659,-0.229014
2.34714,0.365035,0.0552732
2.47187,0.139931,0.0288233
2.31446,0.359952,-0.163788
2.38273,0.252117,-0.1956
2.27133,0.467889,0.06749
2.41813,0.255863,0.0424443
2.45989,0.139252,-0.143487
2.34775,0.36513,0.138371
2.40855,0.254849,0.0986745
2.32154,0.361054,-0.109441
2.38738,0.252609,-0.125816
2.25866,0.46528,-0.0939524
2.33529,0.363191,-0.0549941
2.39449,0.244913,-0.07005
2.34113,0.355735,0
2.48034,0.131726,-0.0289165
2.27387,0.460146,0.0134836
2.41536,0.247048,-0.0141113
2.31193,0.351299,-0.251892
2.35631,0.358042,0.0554593
2.48034,0.131726,0.0289165
2.32359,0.35307,-0.164346
2.28078,0.461545,0.0677228
2.41901,0.247421,0.0424443
2.26143,0.457628,-0.14787
2.46036,0.130665,-0.143487
2.35296,0.357533,0.138603
2.4134,0.246847,0.0988373
2.32674,0.353549,-0.109627
2.39619,0.245087,-0.126234
2.26419,0.458187,-0.0941152
2.33654,0.355038,-0.0549941
2.27908,0.452923,-0.0405594
2.40329,0.237339,-0.0702827
2.35027,0.348734,0
2.48478,0.123265,-0.028963
2.28331,0.453764,0.0135301
2.41621,0.238614,-0.0141113
2.30528,0.342059,-0.251036
2.4543,0.121753,-0.229386
2.3615,0.350401,0.0555524
2.48478,0.123265,0.028963
2.2863,0.454359,0.0678391
2.42384,0.239368,0.0425141
2.46878,0.122471,-0.143952
2.35419,0.349317,0.138603
2.4222,0.239206,0.0991629
2.40498,0.237506,-0.126653
2.37595,0.352545,0.294924
2.43601,0.24057,0.199831
2.34172,0.347466,-0.0550871
2.40012,0.228568,-0.0701664
2.34751,0.339954,0
2.48919,0.114774,-0.0290096
2.2888,0.446557,0.0135534
2.3104,0.334579,-0.251464
2.45869,0.113368,-0.229758
2.36271,0.342155,0.0555524
2.49318,0.114958,0.0290561
2.3339,0.337982,-0.164904
2.2918,0.447141,0.0679555
2.47318,0.114036,-0.144185
2.35935,0.341668,0.138836
2.42302,0.230749,0.0991629
2.33706,0.338441,-0.11
2.38109,0.344817,0.295411
2.43683,0.232064,0.199831
2.47188,0.235402,0.452727
2.34688,0.339862,-0.0551802
2.29012,0.438106,-0.040699
2.41289,0.220864,-0.0705155
2.3527,0.331907,0
2.29043,0.438165,0.0135534
2.4298,0.222412,-0.0141811
2.32342,0.327776,-0.252749
2.46704,0.104694,-0.230501
2.36395,0.333493,0.0555524
2.49758,0.10599,0.0291027
2.33512,0.329427,-0.164904
2.29735,0.43949,0.0680718
2.43744,0.223111,0.0427235
2.48156,0.10531,-0.14465
2.36849,0.334135,0.139301
2.42783,0.222231,0.0993258
2.3462,0.33099,-0.110372
2.4106,0.220655,-0.126862
2.44164,0.223495,0.200157
2.48448,0.227417,0.454879
2.35603,0.332376,-0.0553663
2.41759,0.213213,-0.0706318
2.35775,0.32465,0
2.49392,0.0975511,-0.0290561
2.31798,0.319173,-0.364027
2.29973,0.432045,0.0135999
2.43451,0.214705,-0.0142043
2.32055,0.319528,-0.252321
2.47136,0.0966684,-0.230873
2.37296,0.326744,0.0557385
2.50591,0.0980201,0.0291958
2.34015,0.322226,-0.165183
2.40662,0.212246,-0.197227
2.29094,0.430393,0.0678391
2.44215,0.215379,0.0427933
2.27937,0.42822,-0.148637
2.48588,0.0972366,-0.144882
2.36959,0.326279,0.139301
2.43651,0.214882,0.0996514
2.35124,0.323753,-0.110558
2.4153,0.213011,-0.127072
2.28215,0.428742,-0.0946037
2.48522,0.219178,0.454879
2.35712,0.324562,-0.0553663
2.4223,0.205111,-0.0707482
2.36284,0.31695,0
2.51024,0.0894151,-0.0292424
2.39602,0.202885,-0.306074
2.33348,0.313012,-0.253606
2.47168,0.0880417,-0.230873
2.37805,0.318991,0.0558315
2.51024,0.0894151,0.0292424
2.34126,0.314056,-0.165183
2.41529,0.204517,-0.197878
2.30422,0.424568,0.0681882
2.44687,0.207191,0.0428631
2.28477,0.420984,-0.148893
2.4902,0.0887013,-0.145115
2.38259,0.319599,0.139999
2.43725,0.206376,0.0996514
2.35632,0.316075,-0.110744
2.42399,0.205253,-0.12749
2.45502,0.207881,0.201133
2.29149,0.422223,-0.0949294
2.4899,0.210834,0.455597
2.3622,0.316864,-0.0554593
2.30238,0.415923,-0.0408386
2.423,0.196653,-0.0707482
2.37583,0.310253,0
2.51853,0.0809084,-0.0293355
2.40463,0.195162,-0.307084
2.31056,0.417401,0.0136464
2.33456,0.304864,-0.253606
2.48391,0.0797964,-0.231988
2.38312,0.311205,0.0559246
2.51453,0.08078,0.029289
2.35421,0.307431,-0.16602
2.30962,0.417232,0.0683046
2.45156,0.198971,0.0429329
2.28623,0.413006,-0.148893
2.49448,0.0801359,-0.145348
2.38369,0.31128,0.139999
2.44194,0.19819,0.0998143
2.36137,0.308365,-0.11093
2.42469,0.19679,-0.12749
2.40536,0.31411,0.297849
2.45573,0.199309,0.201133
2.28902,0.41351,-0.0947666
2.36329,0.308616,-0.0554593
2.30775,0.40858,-0.0409084
2.43165,0.188813,-0.0709809
2.38086,0.302462,0
2.312,0.409333,0.0136464
2.33561,0.296712,-0.253606
2.4802,0.0710108,-0.231617
2.38419,0.302884,0.0559246
2.53079,0.0724593,0.0294752
2.35131,0.298708,-0.165741
2.31894,0.410561,0.0685373
2.46022,0.191031,0.0430725
2.29552,0.406414,-0.149405
2.49874,0.0715417,-0.14558
2.38476,0.302957,0.139999
2.36243,0.30012,-0.11093
2.42934,0.188634,-0.1277
2.41038,0.306211,0.298336
2.29832,0.40691,-0.0950922
2.50308,0.194359,0.457749
2.36435,0.300364,-0.0554593
2.31311,0.401206,-0.0409782
2.43628,0.18062,-0.0710973
2.37794,0.293659,0
2.52703,0.0635248,-0.0294287
2.31736,0.401944,0.0136696
2.34058,0.289046,-0.254034
2.48839,0.0625535,-0.23236
2.3892,0.29505,0.0560176
2.53503,0.0637258,0.0295218
2.35234,0.290499,-0.165741
2.3243,0.403147,0.0686537
2.29692,0.398399,-0.149405
2.50297,0.0629199,-0.145813
2.39769,0.296099,0.140696
2.45522,0.182024,0.100303
2.3714,0.292852,-0.111302
2.43397,0.180448,-0.127909
2.41143,0.297796,0.298336
2.47296,0.183339,0.202435
2.29973,0.398886,-0.0950922
2.51159,0.186203,0.459184
2.36539,0.29211,-0.0554593
2.44487,0.172677,-0.07133
2.39086,0.286786,0
2.53124,0.0547893,-0.0294752
2.3389,0.280552,-0.366486
2.32664,0.395192,0.0137161
2.35737,0.282768,-0.255748
2.49258,0.0539525,-0.232732
2.39816,0.28766,0.0562037
2.53124,0.0547893,0.0294752
2.36919,0.284186,-0.166857
2.32175,0.394361,0.0685373
2.51116,0.0543547,-0.146278
2.39475,0.287252,0.140464
2.45983,0.173733,0.100466
2.44256,0.172513,-0.128328
2.4164,0.289849,0.298824
2.47757,0.174986,0.20276
2.30505,0.391524,-0.095255
2.51222,0.177434,0.459184
2.3783,0.285279,-0.0557385
2.44945,0.164411,-0.0714464
2.38787,0.277977,0
2.53141,0.0459551,-0.0294752
2.34379,0.272845,-0.367101
2.42295,0.162633,-0.309105
2.328,0.387069,0.0137161
2.35439,0.274079,-0.255319
2.50071,0.0453978,-0.233476
2.40312,0.279752,0.0562968
2.53941,0.0461003,0.0295684
2.37017,0.275916,-0.166857
2.331,0.387568,0.06877
2.47406,0.166063,0.043282
2.30359,0.38301,-0.149661
2.51133,0.0455905,-0.146278
2.4116,0.280739,0.141394
2.46441,0.165415,0.100628
2.38132,0.277214,-0.111675
2.45111,0.164523,-0.128746
2.42134,0.281873,0.299311
2.48214,0.166605,0.203086
2.31034,0.384133,-0.0954179
2.52068,0.169192,0.460619
2.37928,0.276977,-0.0557385
2.32508,0.378247,-0.0411179
2.45799,0.156367,-0.0716791
2.40075,0.270986,0
2.54355,0.0372938,-0.0296149
2.33329,0.379582,0.0137394
2.35928,0.266305,-0.255748
2.50484,0.0367261,-0.233847
2.40805,0.271809,0.0563898
2.54355,0.0372938,0.0296149
2.37508,0.268088,-0.167137
2.33234,0.379428,0.06877
2.47462,0.157425,0.043282
2.30885,0.375607,-0.149916
2.51547,0.0368819,-0.14651
2.4086,0.271871,0.141162
2.47693,0.157572,0.101117
2.38624,0.269348,-0.111861
2.45167,0.155965,-0.128746
2.4302,0.274309,0.300286
2.48271,0.157939,0.203086
2.31956,0.377349,-0.0957435
2.52126,0.160392,0.460619
2.38024,0.26867,-0.0557385
2.33033,0.370756,-0.0411877
2.45852,0.147785,-0.0716791
2.39771,0.262168,0
2.55167,0.0285035,-0.029708
2.33855,0.372063,0.0137626
2.3602,0.258067,-0.255748
2.50495,0.0279817,-0.233847
2.40501,0.262967,0.0562968
2.55167,0.0285035,0.029708
2.38394,0.260662,-0.167695
2.34155,0.37254,0.0690027
2.31409,0.368172,-0.150172
2.51957,0.028145,-0.146743
2.4135,0.263895,0.141394
2.47747,0.148925,0.101117
2.3832,0.260582,-0.111675
2.43904,0.266687,0.301261
2.49518,0.149989,0.204062
2.32086,0.369249,-0.0957435
2.52966,0.152062,0.462054
2.38514,0.260793,-0.0558315
2.33556,0.363235,-0.0412575
2.46301,0.139429,-0.0717954
2.39861,0.253798,0
2.55575,0.0196276,-0.0297546
2.35831,0.249533,-0.368946
2.37295,0.251083,-0.257033
2.50902,0.0192687,-0.234219
2.41387,0.255412,0.0564829
2.55575,0.0196276,0.0297546
2.38086,0.25192,-0.167416
2.34678,0.364979,0.0691191
2.3193,0.360706,-0.150428
2.52365,0.0193811,-0.146975
2.41838,0.25589,0.141627
2.48196,0.140502,0.10128
2.38807,0.252682,-0.111861
2.46068,0.139297,-0.129165
2.43995,0.258172,0.301261
2.49967,0.141504,0.204388
2.32608,0.36176,-0.0959064
2.53803,0.143676,0.463489
2.39398,0.253308,-0.0560176
2.34071,0.356089,-0.0413273
2.46745,0.131474,-0.0719118
2.4074,0.246658,0
2.5558,0.0111528,-0.0297546
2.51305,0.0109663,-0.234591
2.42266,0.248222,0.056669
2.5558,0.0111528,0.0297546
2.39359,0.245244,-0.168253
2.46031,0.131094,-0.201133
2.34403,0.356594,0.0690027
2.53568,0.011065,-0.147673
2.42716,0.248683,0.142092
2.4904,0.132697,0.101605
2.40081,0.245984,-0.112419
2.4691,0.131562,-0.129584
2.44475,0.250485,0.301749
2.50411,0.133427,0.204713
2.32727,0.354045,-0.0959064
2.54242,0.135468,0.464207
2.40277,0.246184,-0.0562037
2.34589,0.348504,-0.0413971
2.47189,0.123058,-0.0720282
2.41222,0.238646,0
2.55583,0.00223068,-0.0297546
2.35017,0.349139,0.0138091
2.37856,0.235316,-0.257461
2.529,0.00220727,-0.236078
2.43147,0.24055,0.0568551
2.56383,0.00223767,0.0298477
2.39444,0.236887,-0.168253
2.34921,0.348997,0.0691191
2.50052,0.124484,0.0437008
2.3217,0.34491,-0.150428
2.5357,0.00221312,-0.147673
2.43596,0.240995,0.142557
2.49883,0.124399,0.101931
2.44956,0.24234,0.302236
2.50854,0.124883,0.205038
2.33245,0.346506,-0.0960692
2.40361,0.237794,-0.0562037
2.3471,0.340313,-0.0413971
2.48029,0.114799,-0.0722609
2.42101,0.230985,0
2.56382,-0.0067112,-0.0298477
2.45356,0.113562,-0.31264
2.35137,0.340934,0.0138091
2.37937,0.227012,-0.257461
2.52501,-0.00660962,-0.235706
2.43229,0.232062,0.0568551
2.57182,-0.00673214,0.0299409
2.36229,0.342516,0.0694682
2.3308,0.33795,-0.15094
2.53969,-0.00664804,-0.147906
2.43679,0.232491,0.142557
2.50723,0.116046,0.102257
2.47395,0.114506,-0.129793
2.45829,0.234542,0.303211
2.52091,0.116679,0.206015
2.34155,0.33951,-0.0963948
2.55117,0.11808,0.465642
2.40841,0.229783,-0.0562968
2.35223,0.332678,-0.0414669
2.48467,0.106311,-0.0723772
2.42976,0.223264,0
2.57578,-0.0157345,-0.0299874
2.36047,0.333843,0.0138556
2.38807,0.219433,-0.258318
2.53294,-0.0154729,-0.23645
2.44105,0.224301,0.0570412
2.57178,-0.0157101,0.0299409
2.40398,0.220895,-0.168811
2.36743,0.334827,0.0695846
2.33987,0.330929,-0.151451
2.54364,-0.0155382,-0.148138
2.43758,0.223983,0.142557
2.50762,0.107293,0.102257
2.48232,0.10621,-0.130212
2.46305,0.226323,0.303698
2.52528,0.108048,0.20634
2.34668,0.331893,-0.0965577
2.55943,0.109509,0.467077
2.4092,0.221374,-0.0562968
2.3613,0.325557,-0.0416065
2.48903,0.0977936,-0.0724936
2.34055,0.206829,-0.657764
2.43053,0.214781,0
2.57971,-0.0247647,-0.030034
2.38195,0.210488,-0.37202
2.39674,0.211795,-0.259175
2.53685,-0.0243533,-0.236822
2.57971,-0.0247647,0.030034
2.40473,0.212501,-0.168811
2.37254,0.327107,0.0697009
2.34101,0.322759,-0.151451
2.55156,-0.0244945,-0.148603
2.45028,0.216526,0.143255
2.51597,0.0988522,0.102582
2.48267,0.0975441,-0.130212
2.45987,0.217373,0.303211
2.53361,0.0995453,0.206991
2.35178,0.324245,-0.0967205
2.56373,0.100729,0.467794
2.4219,0.214019,-0.056576
2.36242,0.317313,-0.0416065
2.49335,0.0892482,-0.07261
2.34509,0.198984,-0.658842
2.43525,0.206634,0
2.57561,-0.0337165,-0.0299874
2.37873,0.201839,-0.371406
2.39747,0.203428,-0.259175
2.5487,-0.0333643,-0.237937
2.5796,-0.0337689,0.030034
2.41341,0.204781,-0.169369
2.48613,0.0889899,-0.203086
2.36178,0.317227,0.0693518
2.34608,0.315117,-0.151707
2.55944,-0.0335049,-0.149068
2.46296,0.208985,0.143952
2.5163,0.0900698,0.102582
2.49498,0.0893065,-0.13084
2.47248,0.209793,0.304673
2.53793,0.0908439,0.207317
2.34894,0.315502,-0.0965577
2.56799,0.0919201,0.468511
2.42264,0.205564,-0.056576
2.36748,0.309584,-0.0416763
2.50563,0.080932,-0.0729591
2.34961,0.19111,-0.659921
2.44792,0.199105,0
2.58747,-0.0429052,-0.0301271
2.39124,0.194496,-0.37325
2.47473,0.0799339,-0.315165
2.37177,0.310144,0.0139021
2.40609,0.195703,-0.260032
2.55255,-0.0423262,-0.238309
2.58747,-0.0429052,0.0301271
2.42207,0.197003,-0.169927
2.49041,0.0804404,-0.203411
2.3708,0.310018,0.0695846
2.35112,0.307444,-0.151963
2.5633,-0.0425045,-0.149301
2.46368,0.200387,0.143952
2.52459,0.0815443,0.102908
2.49927,0.0807263,-0.131049
2.47716,0.201484,0.305161
2.53424,0.0818562,0.206991
2.36192,0.308856,-0.0970462
2.43131,0.197755,-0.0567621
2.36855,0.301318,-0.0416763
2.5059,0.0721858,-0.0729591
2.35795,0.183505,-0.662077
2.4486,0.19056,0
2.5873,-0.0519364,-0.0301271
2.39191,0.186148,-0.37325
2.38474,0.303378,0.0139718
2.40279,0.186995,-0.259603
2.56433,-0.0514753,-0.239424
2.6033,-0.0522574,0.0303134
2.42672,0.188857,-0.170206
2.38377,0.303255,0.0699336
2.35218,0.299236,-0.151963
2.56314,-0.0514513,-0.149301
2.46038,0.191477,0.14372
2.53285,0.072962,0.103234
2.50752,0.0722324,-0.131468
2.4818,0.193144,0.305648
2.5385,0.0731248,0.207317
2.36298,0.30061,-0.0970462
2.43199,0.189267,-0.0567621
2.37355,0.293539,-0.0417462
2.35857,0.175273,-0.662077
2.45722,0.182604,0
2.5991,-0.0612508,-0.0302668
2.40437,0.178676,-0.375095
2.38181,0.294561,0.0139486
2.4074,0.178901,-0.260032
2.55617,-0.0602392,-0.23868
2.5991,-0.0612508,0.0302668
2.43134,0.18068,-0.170485
2.38085,0.294441,0.0698173
2.36509,0.292493,-0.152731
2.56694,-0.0604928,-0.149534
2.469,0.183479,0.144185
2.53708,0.0642208,0.103397
2.44261,0.181518,-0.114094
2.51175,0.0635795,-0.131677
2.48642,0.184773,0.306136
2.5507,0.0645653,0.208293
2.36798,0.29285,-0.097209
2.58849,0.0655219,0.472099
2.44061,0.181369,-0.0569482
2.38648,0.286682,-0.0419556
2.51034,0.0547755,-0.0730754
2.35917,0.167038,-0.662077
2.45386,0.173742,0
2.60287,-0.0704319,-0.0303134
2.40498,0.170281,-0.375095
2.39474,0.287675,0.0140183
2.41594,0.171058,-0.260888
2.57187,-0.0695931,-0.240167
2.60287,-0.0704319,0.0303134
2.43594,0.172473,-0.170764
2.3898,0.287081,0.07005
2.53901,0.0554011,0.0443291
2.3661,0.284234,-0.152731
2.58268,-0.0698854,-0.150464
2.47759,0.175422,0.14465
2.54528,0.055538,0.103722
2.43924,0.172707,-0.113908
2.51595,0.0548979,-0.131887
2.49101,0.176373,0.306623
2.55888,0.0558346,0.208944
2.37693,0.285535,-0.0975347
2.5887,0.0564853,0.472099
2.45319,0.173695,-0.0572273
2.38746,0.278351,-0.0419556
2.51851,0.0461596,-0.0733081
2.35974,0.158802,-0.662077
2.47065,0.0452823,-0.494216
2.46243,0.165713,0
2.60261,-0.0795166,-0.0303134
2.40161,0.16162,-0.37448
2.3997,0.279778,0.0140416
2.42446,0.163158,-0.261745
2.57161,-0.0785697,-0.240167
2.47373,0.166474,0.0576926
2.60661,-0.0796388,0.0303599
2.44051,0.164238,-0.171043
2.51122,0.046026,-0.205038
2.39079,0.278738,0.07005
2.37104,0.276436,-0.152986
2.5904,-0.0791436,-0.150929
2.48616,0.16731,0.145115
2.54546,0.0466535,0.103722
2.4478,0.164729,-0.11428
2.51612,0.0461158,-0.131887
2.49557,0.167943,0.307111
2.56304,0.0469757,0.209269
2.37394,0.276774,-0.0973718
2.60855,0.0478098,0.475686
2.45777,0.1654,-0.0573204
2.39239,0.270464,-0.0420254
2.52665,0.037486,-0.0735409
2.37566,0.151545,-0.66639
2.46299,0.157116,0
2.61031,-0.0888738,-0.0304065
2.41005,0.153739,-0.37571
2.49956,0.037084,-0.318196
2.40067,0.271399,0.0140416
2.42898,0.154946,-0.262174
2.58327,-0.087953,-0.241283
2.44505,0.155971,-0.171322
2.51934,0.0373775,-0.205689
2.39572,0.27084,0.0701664
2.55133,0.0378521,0.0445385
2.36406,0.267261,-0.152475
2.5941,-0.0883219,-0.151161
2.49469,0.159138,0.14558
2.5496,0.0378265,0.103885
2.45634,0.156691,-0.114653
2.52426,0.0374505,-0.132305
2.50803,0.159989,0.308573
2.56319,0.0380281,0.209269
2.37489,0.268485,-0.0973718
2.45834,0.156819,-0.0573204
2.39721,0.263384,-0.0420952
2.53076,0.0295953,-0.0736572
2.37997,0.144314,-0.667469
2.47146,0.149862,0
2.61801,-0.0973707,-0.0304996
2.41841,0.146646,-0.37694
2.40548,0.264293,0.0140648
2.42946,0.147315,-0.262174
2.58696,-0.0962157,-0.241655
2.61801,-0.0973707,0.0304996
2.44951,0.148531,-0.171601
2.52343,0.0295097,-0.206015
2.40053,0.263749,0.0702827
2.55944,0.0299307,0.0446782
2.38076,0.261577,-0.153498
2.59381,-0.0964705,-0.151161
2.49518,0.151301,0.14558
2.5577,0.0299105,0.104211
2.52836,0.0295673,-0.132515
2.50852,0.152109,0.308573
2.57526,0.0301157,0.210246
2.38764,0.262333,-0.0978603
2.46281,0.149338,-0.0574134
2.40209,0.255437,-0.042165
2.53084,0.0207605,-0.0736572
2.37661,0.135785,-0.66639
2.48395,0.141918,0
2.62565,-0.106835,-0.0305928
2.41891,0.138202,-0.37694
2.40639,0.255894,0.0140648
2.4379,0.139287,-0.26303
2.59456,-0.10557,-0.242398
2.62565,-0.106835,0.0305928
2.45798,0.140434,-0.172159
2.52751,0.0207331,-0.20634
2.41337,0.256636,0.0706318
2.56752,0.0210614,0.0448178
2.38166,0.253264,-0.153498
2.60144,-0.105849,-0.151627
2.49968,0.142817,0.145813
2.55779,0.0209816,0.104211
2.46131,0.140625,-0.114839
2.53643,0.0208064,-0.132933
2.52093,0.144031,0.310036
2.57933,0.0211583,0.210571
2.39251,0.254419,-0.0980231
2.46731,0.140967,-0.0575065
2.41097,0.247448,-0.0423046
2.5389,0.0115212,-0.07389
2.38094,0.12728,-0.667469
2.48673,0.0112844,-0.497353
2.48046,0.1326,0
2.62924,-0.116634,-0.0306393
2.42335,0.129547,-0.377555
2.40731,0.247073,0.0140648
2.44634,0.130776,-0.263887
2.6061,-0.115608,-0.243513
2.46246,0.131638,-0.172438
2.53554,0.011506,-0.206991
2.41827,0.248197,0.0707482
2.56758,0.0116514,0.0448178
2.38654,0.244941,-0.153754
2.60502,-0.11556,-0.151859
2.50418,0.133868,0.146045
2.56585,0.0116435,0.104536
2.4658,0.131817,-0.115025
2.5285,0.011474,-0.132515
2.51351,0.134367,0.309061
2.58737,0.0117411,0.211222
2.40138,0.246464,-0.0983488
2.47579,0.132351,-0.0576926
2.54292,0.00310724,-0.0740063
2.38904,0.11977,-0.669625
2.4946,0.00304819,-0.498922
2.48887,0.124775,0
2.63283,-0.125542,-0.0306859
2.42771,0.121709,-0.37817
2.44676,0.122663,-0.263887
2.60968,-0.124438,-0.243885
2.64082,-0.125923,0.030779
2.53556,0.00309825,-0.206991
2.4151,0.239782,0.0706318
2.57561,0.00314718,0.0449574
2.39529,0.237815,-0.154266
2.62457,-0.125148,-0.153022
2.51258,0.125963,0.14651
2.57786,0.00314993,0.105025
2.4782,0.12424,-0.115583
2.53652,0.00309941,-0.132933
2.52187,0.126429,0.310036
2.58739,0.00316158,0.211222
2.40616,0.238895,-0.0985116
2.48421,0.124541,-0.0578787
2.55091,-0.00578684,-0.074239
2.40099,0.111969,-0.67286
2.49329,0.116273,0
2.64436,-0.135345,-0.0308256
2.43207,0.113418,-0.378784
2.52363,-0.00572495,-0.321226
2.4169,0.231445,0.0141113
2.6132,-0.13375,-0.244257
2.47526,0.115432,-0.173275
2.53955,-0.00576105,-0.207317
2.42388,0.232113,0.0708645
2.5716,-0.00583377,0.0448876
2.3961,0.229453,-0.154266
2.62411,-0.134308,-0.153022
2.51301,0.117193,0.14651
2.58185,-0.00585702,0.105188
2.47862,0.115589,-0.115583
2.5485,-0.00578136,-0.133561
2.53023,0.117996,0.311011
2.59137,-0.00587862,0.211548
2.40698,0.230495,-0.0985116
2.48862,0.116055,-0.0579717
2.42139,0.222921,-0.0424443
2.55487,-0.0151607,-0.0743554
2.40523,0.103333,-0.673938
2.50632,-0.0148726,-0.501276
2.50169,0.107477,0
2.65183,-0.145475,-0.0309187
2.44037,0.104842,-0.380014
2.53153,-0.0150222,-0.322237
2.42172,0.222951,0.0141346
2.57991,-0.0153093,-0.0149947
2.45552,0.105493,-0.264744
2.62463,-0.143982,-0.245372
2.65183,-0.145475,0.0309187
2.47567,0.106359,-0.173275
2.54349,-0.0150932,-0.207642
2.43268,0.22396,0.0710973
2.58356,-0.015331,0.045097
2.40488,0.221401,-0.154777
2.6236,-0.143926,-0.153022
2.5214,0.108323,0.146975
2.58581,-0.0153443,0.10535
2.48302,0.106674,-0.115769
2.55245,-0.0151464,-0.133771
2.53858,0.109061,0.311986
2.59931,-0.0154244,0.212199
2.41577,0.222404,-0.0988373
2.48903,0.106933,-0.0579717
2.42614,0.214821,-0.0425141
2.5588,-0.024116,-0.0744718
2.40558,0.0949367,-0.673938
2.51017,-0.0236577,-0.50206
2.51005,0.0990596,0
2.65929,-0.155196,-0.0310118
2.44861,0.0966352,-0.381244
2.42647,0.21485,0.0141578
2.58384,-0.0243519,-0.015018
2.45984,0.0970784,-0.265172
2.62411,-0.153142,-0.245372
2.51736,0.0993482,0.0586231
2.484,0.0980316,-0.173833
2.43344,0.215468,0.0710973
2.59149,-0.024424,0.0452366
2.41359,0.213709,-0.155289
2.63106,-0.153548,-0.153487
2.52176,0.0995219,0.146975
2.58974,-0.0244075,0.105513
2.48337,0.0980069,-0.115769
2.56037,-0.0241308,-0.134189
2.53894,0.1002,0.311986
2.60322,-0.0245346,0.212524
2.49738,0.0985597,-0.0581579
2.43481,0.207453,-0.0426537
2.40203,0.0868192,-0.67286
2.514,-0.0320322,-0.502845
2.51036,0.0907348,0
2.67074,-0.164753,-0.0311515
2.45287,0.0886569,-0.381859
2.54327,-0.0324051,-0.323752
2.43115,0.207141,0.0141811
2.59175,-0.0330228,-0.0150645
2.4681,0.0892074,-0.266029
2.62359,-0.161844,-0.245372
2.48032,0.089649,-0.173554
2.56326,-0.0326599,-0.209269
2.44211,0.208075,0.07133
2.59139,-0.0330183,0.0452366
2.63851,-0.162764,-0.153952
2.53006,0.0914467,0.147441
2.59364,-0.0330469,0.105676
2.49167,0.0900592,-0.116142
2.56028,-0.0326218,-0.134189
2.54323,0.0919227,0.312473
2.6111,-0.0332694,0.213175
2.50169,0.0904213,-0.0582509
2.4395,0.199277,-0.0427235
2.56658,-0.0416637,-0.0747045
2.41002,0.0786848,-0.675017
2.51388,-0.0408082,-0.502845
2.51066,0.0819708,0
2.66616,-0.173815,-0.031105
2.45317,0.0800936,-0.381859
2.55108,-0.0414121,-0.324762
2.43983,0.199304,0.0142276
2.4684,0.0805909,-0.266029
2.63493,-0.171779,-0.246488
2.67414,-0.174336,0.0311981
2.48859,0.0812503,-0.174112
2.56313,-0.0416078,-0.209269
2.44283,0.199549,0.07133
2.60726,-0.0423241,0.0455159
2.65386,-0.173013,-0.154882
2.54234,0.0830049,0.148138
2.60549,-0.0422955,0.106165
2.49996,0.0816212,-0.116514
2.56414,-0.0416242,-0.134399
2.61894,-0.0425138,0.213826
2.42988,0.198492,-0.0993258
2.51398,0.0820791,-0.0585301
2.5824,-0.051388,-0.0751699
2.42569,0.0702979,-0.67933
2.52548,-0.0502553,-0.505198
2.51494,0.0728846,0
2.66949,-0.18386,-0.0311515
2.45344,0.0711023,-0.381859
2.54694,-0.0506825,-0.324257
2.44055,0.190361,0.0142276
2.60344,-0.0518068,-0.0151342
2.47663,0.0717742,-0.266886
2.6462,-0.182256,-0.247603
2.67747,-0.18441,0.0312447
2.49685,0.0723603,-0.17467
2.56296,-0.0510013,-0.209269
2.4555,0.191527,0.0716791
2.60709,-0.0518793,0.0455159
2.42365,0.189043,-0.155801
2.65719,-0.183013,-0.155115
2.54262,0.0736867,0.148138
2.60932,-0.0519237,0.106327
2.50024,0.0724584,-0.116514
2.57196,-0.0511803,-0.134817
2.55573,0.0740665,0.313935
2.62275,-0.0521911,0.214151
2.43458,0.189896,-0.0994886
2.51826,0.0729807,-0.0586231
2.45283,0.182707,-0.0429329
2.5822,-0.0604026,-0.0751699
2.42592,0.0618296,-0.67933
2.52921,-0.059163,-0.505983
2.52718,0.0644104,0
2.68479,-0.194333,-0.0313378
2.46948,0.0629399,-0.384319
2.55468,-0.0597589,-0.325267
2.44917,0.182434,0.0142741
2.60324,-0.0608949,-0.0151342
2.47686,0.063128,-0.266886
2.65349,-0.192067,-0.248347
2.68479,-0.194333,0.0313378
2.50507,0.0638469,-0.175228
2.57473,-0.0602278,-0.210246
2.45615,0.182954,0.0716791
2.60689,-0.0609801,0.0455159
2.42828,0.180878,-0.156056
2.65654,-0.192288,-0.155115
2.54286,0.0648102,0.148138
2.60912,-0.0610324,0.106327
2.50447,0.0638316,-0.1167
2.57975,-0.0603454,-0.135236
2.56788,0.0654477,0.315398
2.62654,-0.0614398,0.214477
2.5145,0.0640873,-0.0585301
2.58597,-0.0695226,-0.0752863
2.5329,-0.068096,-0.506767
2.52739,0.0555891,0
2.69208,-0.204308,-0.0314309
2.47364,0.0544069,-0.384934
2.56239,-0.0688887,-0.326277
2.45378,0.174168,0.0142973
2.61101,-0.0701959,-0.0151807
2.47707,0.0544824,-0.266886
2.64883,-0.201027,-0.247975
2.5427,0.0559258,0.0591814
2.69208,-0.204308,0.0314309
2.50528,0.0551028,-0.175228
2.57849,-0.0693215,-0.210571
2.46475,0.174946,0.0719118
2.65983,-0.201861,-0.155347
2.54707,0.056022,0.148371
2.62088,-0.0704611,0.106816
2.50867,0.0551775,-0.116886
2.58751,-0.0695641,-0.135655
2.57206,0.0565716,0.315885
2.6303,-0.0707143,0.214802
2.52671,0.0555741,-0.0588092
2.59372,-0.0783391,-0.075519
2.52756,0.0472077,0
2.69936,-0.213866,-0.0315241
2.47776,0.0462775,-0.385548
2.56612,-0.0775054,-0.326782
2.46233,0.16657,0.0143438
2.61476,-0.0789747,-0.015204
2.48519,0.0464163,-0.267743
2.65212,-0.210124,-0.248347
2.55086,0.047643,0.0593675
2.69537,-0.21355,0.0314775
2.51342,0.0469437,-0.175786
2.5902,-0.0782327,-0.211548
2.46931,0.167042,0.0720282
2.6264,-0.0793262,0.0458649
2.44538,0.165423,-0.15708
2.67109,-0.211627,-0.156045
2.55522,0.0477244,0.148836
2.62063,-0.0791519,0.106816
2.51284,0.0469327,-0.117072
2.58328,-0.0780236,-0.135445
2.57223,0.0480421,0.315885
2.642,-0.0797974,0.215779
2.53087,0.0472696,-0.0589023
2.60141,-0.0881157,-0.0757518
2.53171,0.0380035,0
2.70254,-0.224089,-0.0315706
2.48186,0.0372551,-0.386163
2.57375,-0.0871788,-0.327792
2.46692,0.157799,0.0143671
2.62245,-0.0888286,-0.0152505
2.48932,0.0373671,-0.268171
2.6553,-0.220172,-0.248718
2.55902,0.0384133,0.0595536
2.71051,-0.22475,0.0316637
2.51757,0.0377911,-0.176065
2.59388,-0.0878607,-0.211873
2.47389,0.158245,0.0721445
2.63809,-0.0893581,0.0460744
2.67428,-0.221745,-0.156278
2.55937,0.0384187,0.149068
2.63231,-0.0891623,0.107304
2.52498,0.0379023,-0.117631
2.59495,-0.087897,-0.136073
2.58033,0.0387332,0.31686
2.64169,-0.0894803,0.215779
2.45295,0.156905,-0.10014
2.53903,0.0381132,-0.0590884
2.60508,-0.0973451,-0.0758681
2.54383,0.0293041,0
2.70573,-0.233866,-0.0316172
2.48593,0.0286371,-0.386778
2.56946,-0.0960141,-0.327287
2.47544,0.14967,0.0144135
2.63412,-0.0984302,-0.0153202
2.50136,0.0288149,-0.269456
2.66246,-0.230125,-0.249462
2.55914,0.0294805,0.0595536
2.71768,-0.234899,0.0317569
2.52566,0.0290949,-0.176623
2.59356,-0.0969145,-0.211873
2.48241,0.150091,0.0723772
2.63776,-0.0985662,0.0460744
2.45049,0.148161,-0.157336
2.68542,-0.23211,-0.156975
2.56748,0.0295765,0.149534
2.63597,-0.0984995,0.107467
2.53309,0.0291803,-0.118003
2.60261,-0.0972528,-0.136492
2.58839,0.0298174,0.317835
2.65332,-0.0991476,0.216755
2.46146,0.148825,-0.100466
2.54314,0.0292962,-0.0591814
2.60875,-0.105691,-0.0759845
2.55191,0.0213793,0
2.72091,-0.243793,-0.0318034
2.49391,0.0208934,-0.388008
2.57708,-0.104407,-0.328297
2.4719,0.141663,0.0143903
2.6338,-0.106705,-0.0153202
2.50542,0.0209898,-0.269885
2.67362,-0.239555,-0.250577
2.71693,-0.243436,0.0317569
2.52973,0.0211935,-0.176902
2.60519,-0.105546,-0.212849
2.49086,0.14275,0.07261
2.64942,-0.107338,0.0462838
2.45891,0.140919,-0.157847
2.68468,-0.240546,-0.156975
2.56756,0.0215104,0.149534
2.64364,-0.107104,0.107793
2.54116,0.0212892,-0.118375
2.61027,-0.105752,-0.136911
2.60038,0.0217854,0.319298
2.66494,-0.107967,0.217731
2.54322,0.0213066,-0.0591814
2.62035,-0.115324,-0.0763336
2.55597,0.0124909,0
2.72005,-0.253289,-0.0318034
2.49792,0.0122072,-0.388623
2.58462,-0.113751,-0.329308
2.48037,0.133464,0.0144368
2.6414,-0.11625,-0.0153667
2.67277,-0.248886,-0.250577
2.57127,0.0125657,0.0598328
2.732,-0.254401,0.0319431
2.53378,0.0123825,-0.177181
2.49932,0.134484,0.0728427
2.65303,-0.116762,0.0463536
2.57161,0.0125674,0.149766
2.64325,-0.116331,0.107793
2.53322,0.0123798,-0.118003
2.61388,-0.115039,-0.13712
2.59647,0.0126888,0.31881
2.66853,-0.117444,0.218057
2.55128,0.012468,-0.0593675
2.62388,-0.125575,-0.0764499
2.556,0.00267665,0
2.72702,-0.264503,-0.0318966
2.5019,0.00262,-0.389238
2.58813,-0.123864,-0.329813
2.48885,0.124338,0.0144833
2.50948,0.00262793,-0.270313
2.5753,0.00269686,0.0599259
2.72702,-0.264503,0.0318966
2.52982,0.00264923,-0.176902
2.61629,-0.125212,-0.213826
2.49982,0.124886,0.0728427
2.65655,-0.127139,0.0464234
2.47184,0.123488,-0.158615
2.57563,0.00269721,0.149999
2.54124,0.0026612,-0.118375
2.62539,-0.125647,-0.137748
2.60841,0.00273153,0.320273
2.67204,-0.12788,0.218382
2.55131,0.00267173,-0.0593675
2.63142,-0.135144,-0.0766826
2.56799,-0.0062748,0
2.73006,-0.274421,-0.0319431
2.50585,-0.00612295,-0.389853
2.60353,-0.133712,-0.331833
2.49726,0.116021,0.0145298
2.65645,-0.13643,-0.0154597
2.51743,-0.00615125,-0.27117
2.57929,-0.00630242,0.0600189
2.73404,-0.274821,0.0319897
2.54578,-0.00622052,-0.178019
2.61982,-0.134548,-0.214151
2.49625,0.115974,0.0727263
2.66808,-0.137026,0.0466328
2.47624,0.115044,-0.158871
2.58361,-0.00631298,0.150464
2.6543,-0.136319,0.108281
2.55322,-0.00623872,-0.118934
2.63291,-0.13522,-0.138167
2.61237,-0.00638325,0.32076
2.67954,-0.137615,0.219033
2.48326,0.11537,-0.10128
2.63896,-0.143845,-0.0769154
2.73714,-0.283821,-0.0320363
2.50977,-0.0140173,-0.390468
2.6031,-0.14189,-0.331833
2.50161,0.108348,0.014553
2.52535,-0.0141044,-0.272027
2.58726,-0.0144501,0.060205
2.74509,-0.284646,0.0321294
2.54574,-0.0142183,-0.178019
2.62735,-0.143212,-0.214802
2.51258,0.108823,0.0731918
2.66763,-0.145408,0.0466328
2.47659,0.107264,-0.158871
2.70489,-0.280477,-0.158371
2.58758,-0.0144519,0.150696
2.66184,-0.145092,0.108607
2.55719,-0.0142822,-0.11912
2.64045,-0.143926,-0.138586
2.62028,-0.0146346,0.321735
2.68706,-0.146467,0.219684
2.57126,-0.0143608,-0.0598328
2.50164,0.0996015,-0.0437008
2.64244,-0.153287,-0.0770317
2.57189,-0.0233424,0
2.74806,-0.294653,-0.032176
2.51761,-0.0228497,-0.391698
2.60655,-0.151206,-0.332338
2.50198,0.099615,0.014553
2.66747,-0.15474,-0.0155294
2.52529,-0.0229194,-0.272027
2.59519,-0.0235538,0.0603911
2.74408,-0.294227,0.0321294
2.55765,-0.0232131,-0.178856
2.52093,0.10037,0.0734245
2.67909,-0.155414,0.0468423
2.48493,0.0989363,-0.159382
2.67328,-0.155077,0.109096
2.56911,-0.0233171,-0.119678
2.64392,-0.153374,-0.138795
2.63609,-0.0239251,0.323685
2.69847,-0.156538,0.22066
2.5792,-0.0234087,-0.0600189
2.64582,-0.163679,-0.0771481
2.59178,-0.0334759,0
2.74691,-0.305203,-0.032176
2.52541,-0.0326185,-0.392927
2.61783,-0.161948,-0.333853
2.51033,0.0902949,0.0145995
2.53711,-0.0327697,-0.273312
2.59508,-0.0335185,0.0603911
2.76679,-0.307411,0.0324088
2.56552,-0.0331367,-0.179414
2.49327,0.0896811,-0.159894
2.59938,-0.033574,0.151394
2.67267,-0.16534,0.109096
2.56101,-0.0330784,-0.119306
2.65129,-0.164018,-0.139214
2.63598,-0.0340468,0.323685
2.69785,-0.166898,0.22066
2.57509,-0.0332602,-0.0599259
2.65327,-0.172509,-0.0773808
2.58767,-0.0415538,0
2.75786,-0.315194,-0.0323156
2.5332,-0.0406791,-0.394157
2.62127,-0.170429,-0.334358
2.5226,0.0828017,0.0146693
2.54097,-0.040804,-0.27374
2.60696,-0.0418636,0.0606703
2.76581,-0.316102,0.0324088
2.56141,-0.0411322,-0.179135
2.64957,-0.172269,-0.216755
2.49753,0.0819788,-0.16015
2.60325,-0.0418041,0.151627
2.68809,-0.174773,0.109747
2.56888,-0.0412522,-0.119678
2.64677,-0.172087,-0.139004
2.63983,-0.0423915,0.324172
2.71323,-0.176408,0.221962
2.58297,-0.0414783,-0.060112
2.65661,-0.182507,-0.0774972
2.5955,-0.0511956,0
2.75669,-0.325299,-0.0323156
2.53698,-0.0500414,-0.394772
2.6325,-0.180851,-0.335873
2.61079,-0.0514972,0.0607633
2.77655,-0.327643,0.0325485
2.56923,-0.0506774,-0.179693
2.6529,-0.182252,-0.21708
2.53385,0.073875,0.0737736
2.5018,0.0729407,-0.160406
2.61107,-0.0515027,0.152092
2.69541,-0.185172,0.110073
2.5807,-0.0509037,-0.120236
2.65808,-0.182608,-0.139632
2.63966,-0.0520667,0.324172
2.70461,-0.185804,0.221311
2.51285,0.0732627,-0.10242
2.5868,-0.051024,-0.060205
2.67191,-0.192931,-0.0779626
2.6033,-0.0604409,0
2.7595,-0.335403,-0.0323622
2.54074,-0.0589886,-0.395387
2.63186,-0.190039,-0.335873
2.52713,0.064851,0.0146925
2.55254,-0.0592625,-0.275025
2.61859,-0.0607958,0.0609494
2.77539,-0.337333,0.0325485
2.57701,-0.0598306,-0.180251
2.65623,-0.191799,-0.217406
2.53409,0.0650298,0.0737736
2.70455,-0.195288,0.0473309
2.50603,0.0643097,-0.160661
2.62684,-0.0609875,0.153022
2.70272,-0.195156,0.110398
2.5885,-0.0600972,-0.120609
2.66539,-0.192461,-0.140051
2.64343,-0.0613727,0.32466
2.51309,0.0644908,-0.10242
2.5946,-0.0602389,-0.0603911
2.67524,-0.202092,-0.078079
2.60708,-0.0691795,0
2.77425,-0.346535,-0.0325485
2.55239,-0.0677282,-0.397232
2.63913,-0.199363,-0.336884
2.53932,0.0567385,0.0147623
2.70026,-0.203982,-0.0157387
2.55233,-0.0677267,-0.275025
2.62636,-0.0696912,0.0611355
2.78219,-0.347526,0.0326416
2.58478,-0.0685876,-0.180809
2.54629,0.056894,0.0741227
2.70787,-0.204556,0.0474007
2.50623,0.0559991,-0.160661
2.61864,-0.0694862,0.152557
2.70205,-0.204117,0.110398
2.59627,-0.0688926,-0.120981
2.67271,-0.2019,-0.14047
2.65512,-0.0704542,0.326122
2.59438,-0.0688426,-0.0603911
2.53516,0.0477924,-0.0442593
2.67452,-0.211429,-0.078079
2.61482,-0.0785196,0
2.77699,-0.356726,-0.032595
2.55213,-0.0766372,-0.397232
2.70751,-0.214036,-0.0157852
2.56798,-0.0771131,-0.276739
2.62611,-0.0788585,0.0611355
2.78493,-0.357745,0.0326882
2.58452,-0.0776098,-0.180809
2.67473,-0.211445,-0.219033
2.55047,0.0480809,0.074239
2.51839,0.0474761,-0.161429
2.63036,-0.0789861,0.153254
2.70929,-0.214178,0.110724
2.60001,-0.0780748,-0.121167
2.67995,-0.211858,-0.140888
2.66676,-0.0800794,0.327585
2.59813,-0.0780183,-0.0604842
2.54331,0.0390655,-0.0443989
2.68174,-0.221421,-0.0783117
2.62253,-0.0879146,0
2.78763,-0.367988,-0.0327347
2.5637,-0.0859427,-0.399076
2.55166,0.0391937,0.014832
2.5677,-0.0860766,-0.276739
2.62981,-0.0881588,0.0612286
2.58822,-0.0867647,-0.181088
2.67398,-0.220781,-0.219033
2.55861,0.0393006,0.0744718
2.63805,-0.0884349,0.15372
2.7165,-0.224291,0.111049
2.60371,-0.0872839,-0.121353
2.68317,-0.22154,-0.141098
2.67043,-0.0895206,0.328072
2.5336,0.0389163,-0.103234
2.60583,-0.0873549,-0.0606703
2.68887,-0.231936,-0.0785444
2.63018,-0.0978234,0
2.55942,-0.0951916,-0.398462
2.57134,-0.0956348,-0.277167
2.63746,-0.0980942,0.0614147
2.59586,-0.096547,-0.181646
2.67712,-0.230922,-0.219359
2.56274,0.0299693,0.0745881
2.52664,0.0295472,-0.161941
2.65367,-0.0986969,0.15465
2.72362,-0.234933,0.111375
2.61535,-0.0972719,-0.121912
2.68235,-0.231373,-0.141098
2.53772,0.0296767,-0.103397
2.61349,-0.0972024,-0.0608564
2.55153,0.0209308,-0.0445385
2.70796,-0.243108,-0.0791263
2.63382,-0.107166,0
2.79284,-0.38903,-0.0328279
2.56302,-0.104286,-0.399076
2.55987,0.0209992,0.0148785
2.58688,-0.105257,-0.278881
2.64909,-0.107788,0.0616939
2.5995,-0.10577,-0.181925
2.68424,-0.240979,-0.22001
2.55883,0.0209907,0.0744718
2.73259,-0.24532,0.0478894
2.53471,0.0207929,-0.162452
2.6573,-0.108122,0.154882
2.73074,-0.245154,0.111701
2.61899,-0.106563,-0.122098
2.68948,-0.241449,-0.141516
2.53781,0.0208183,-0.103397
2.62112,-0.10665,-0.0610425
2.55158,0.0124695,-0.0445385
2.70714,-0.252087,-0.0791263
2.64144,-0.116252,0
2.80342,-0.399984,-0.0329675
2.57451,-0.113306,-0.400921
2.56793,0.0125494,0.014925
2.58255,-0.11366,-0.278452
2.61109,-0.114916,-0.182762
2.69137,-0.250618,-0.22066
2.56688,0.0125443,0.0747045
2.53876,0.0124068,-0.162708
2.65293,-0.116757,0.15465
2.7339,-0.254578,0.111864
2.69662,-0.251107,-0.141935
2.54586,0.0124415,-0.103722
2.62075,-0.115341,-0.0610425
2.64899,-0.126313,0
2.80985,-0.411415,-0.0330607
2.57802,-0.122929,-0.401536
2.56795,0.00313733,0.014925
2.59403,-0.123693,-0.279738
2.66026,-0.126851,0.061973
2.61862,-0.124865,-0.18332
2.69836,-0.261249,-0.221311
2.57491,0.00314583,0.0749372
2.54278,0.00310658,-0.162964
2.66445,-0.127051,0.155347
2.74488,-0.265752,0.112352
2.62617,-0.125225,-0.12247
2.70363,-0.261759,-0.142354
2.62431,-0.125136,-0.0611355
2.71332,-0.271303,-0.079359
2.65258,-0.134838,0
2.82041,-0.422016,-0.0332004
2.58552,-0.131429,-0.402766
2.57995,-0.00495315,0.0149947
2.5976,-0.132043,-0.280166
2.61423,-0.132889,-0.183041
2.5789,-0.00495114,0.0750536
2.55076,-0.00489711,-0.163475
2.67202,-0.135826,0.155813
2.75198,-0.27517,0.112678
2.63773,-0.134083,-0.123028
2.70677,-0.270649,-0.142563
2.56187,-0.00491844,-0.104373
2.6279,-0.133583,-0.0612286
2.66008,-0.14453,0
2.58504,-0.140453,-0.402766
2.60507,-0.141541,-0.281023
2.67134,-0.145142,0.0622522
2.62571,-0.142663,-0.183878
2.71243,-0.280781,-0.222613
2.57887,-0.0139532,0.0750536
2.76082,-0.285791,0.0484479
2.54674,-0.0137793,-0.16322
2.67551,-0.145369,0.156045
2.75498,-0.285186,0.112841
2.63725,-0.14329,-0.123028
2.71773,-0.281329,-0.143191
2.54985,-0.0137961,-0.103885
2.64338,-0.143623,-0.0616008
2.5795,-0.0234114,-0.0450272
2.72721,-0.292417,-0.0798244
2.66752,-0.154742,0
2.58785,-0.0234872,0.0150412
2.75616,-0.295521,-0.0161106
2.61247,-0.151549,-0.281879
2.63712,-0.152979,-0.184715
2.5868,-0.0234777,0.0752863
2.75976,-0.295907,0.0484479
2.55066,-0.0231497,-0.163475
2.69091,-0.156099,0.156975
2.64069,-0.153186,-0.123214
2.72065,-0.291714,-0.143401
2.56177,-0.0232505,-0.104373
2.64683,-0.153542,-0.0616939
2.5834,-0.0324657,-0.045097
2.73809,-0.303256,-0.0801735
2.67095,-0.164298,0
2.75908,-0.30558,-0.0161339
2.64055,-0.162428,-0.184994
2.5907,-0.0325574,0.0754027
2.76666,-0.30642,0.0485875
2.55855,-0.0321534,-0.163987
2.69433,-0.165737,0.157208
2.65211,-0.163139,-0.123773
2.7355,-0.302968,-0.144238
2.57766,-0.0323935,-0.105025
2.65027,-0.163026,-0.0617869
2.59128,-0.0411594,-0.0452366
2.67838,-0.173672,0
2.76998,-0.316089,-0.0162036
2.61535,-0.169585,-0.282308
2.69361,-0.17466,0.0628105
2.64398,-0.171442,-0.185273
2.60257,-0.0413388,0.0757518
2.77755,-0.316953,0.0487969
2.56641,-0.0407644,-0.164499
2.69775,-0.174929,0.15744
2.65155,-0.171933,-0.123773
2.73845,-0.312491,-0.144447
2.58153,-0.0410046,-0.105188
2.66169,-0.17259,-0.0620661
2.59512,-0.0502819,-0.0453064
2.67775,-0.18302,0
2.60347,-0.0504437,0.0151342
2.76886,-0.325756,-0.0162036
2.62664,-0.179527,-0.283593
2.64336,-0.18067,-0.185273
2.60241,-0.0504232,0.0757518
2.77643,-0.326646,0.0487969
2.57024,-0.0498,-0.164755
2.70509,-0.184889,0.157906
2.65492,-0.18146,-0.123959
2.73734,-0.322048,-0.144447
2.58537,-0.050093,-0.10535
2.66506,-0.182153,-0.0621591
2.60291,-0.0599774,-0.0454461
2.68105,-0.193121,0
2.60726,-0.0600777,0.0151575
2.77559,-0.336866,-0.0162501
2.6339,-0.189724,-0.28445
2.65462,-0.191217,-0.18611
2.6102,-0.0601454,0.0759845
2.78315,-0.337784,0.0489365
2.58202,-0.0594959,-0.165522
2.71237,-0.195376,0.158371
2.66221,-0.191764,-0.124331
2.58916,-0.0596606,-0.105513
2.67634,-0.192781,-0.0624383
2.6107,-0.0688195,-0.0455857
2.68838,-0.202612,0
2.61505,-0.0689342,0.015204
2.78239,-0.347058,-0.0162966
2.63722,-0.198757,-0.284878
2.71157,-0.20436,0.0632757
2.65795,-0.200319,-0.186389
2.61399,-0.0689062,0.0761008
2.78201,-0.347011,0.0489365
2.57781,-0.0679527,-0.165266
2.71568,-0.20467,0.158603
2.66953,-0.201191,-0.124703
2.75088,-0.343128,-0.145285
2.58895,-0.0682463,-0.105513
2.68366,-0.202257,-0.0626244
2.61044,-0.0779321,-0.0455857
2.69962,-0.212938,0
2.61879,-0.0781813,0.0152272
2.78513,-0.357278,-0.0163199
2.66917,-0.210537,-0.187226
2.62572,-0.0783882,0.0764499
2.79269,-0.358247,0.049146
