2.2483,0.23829,-0.118489
2.29772,0.473745,-0.0955807
2.30484,0.46683,-0.0410481
2.24728,0.230251,-0.0657446
2.26593,0.344712,0
2.2207,0.118325,-0.0258898
2.28947,0.463718,0.0135766
2.28042,0.346916,-0.248465
2.22317,0.118456,-0.207823
2.27718,0.346423,0.0535983
2.21271,0.117899,0.0257966
2.27224,0.345673,-0.160719
2.24871,0.230398,-0.184535
2.28854,0.463529,0.0679555
2.24789,0.230314,0.0394424
2.30438,0.466738,-0.150684
2.22108,0.118345,-0.129534
2.26999,0.34533,0.13372
2.23046,0.228529,0.0913472
2.27138,0.345541,-0.107022
2.24912,0.23044,-0.118489
2.29545,0.464928,-0.0954179
2.27322,0.345822,-0.0535052
2.29469,0.456443,-0.0408386
2.24409,0.222013,-0.0656282
2.27108,0.33739,0
2.21311,0.110176,-0.0257966
2.295,0.456505,0.0135999
2.245,0.222104,-0.0131117
2.27768,0.338371,-0.248037
2.27442,0.337886,0.0535052
2.21311,0.110176,0.0257966
2.27344,0.337741,-0.160719
2.2495,0.222549,-0.184535
2.29014,0.455539,0.0679555
2.30208,0.457914,-0.150428
2.20154,0.1096,-0.128371
2.26328,0.336232,0.133255
2.23125,0.220743,0.0913472
2.26862,0.337024,-0.106835
2.24594,0.222196,-0.118279
2.25415,0.334875,0.279812
2.29314,0.456134,-0.095255
2.27046,0.337299,-0.0534122
2.29242,0.447262,-0.0407688
2.24489,0.213785,-0.0656282
2.26438,0.327915,0
2.29273,0.447323,0.0135766
2.2458,0.213872,-0.0131117
2.27497,0.329449,-0.247608
2.21202,0.101994,-0.206708
2.26772,0.3284,0.0533191
2.20551,0.101694,0.0257035
2.27071,0.328832,-0.16044
2.28395,0.445609,0.0677228
2.24152,0.213464,0.0393028
2.30375,0.449472,-0.150428
2.2099,0.101897,-0.128836
2.2566,0.326788,0.13279
2.22408,0.211804,0.0910215
2.26193,0.32756,-0.106463
2.24276,0.213583,-0.11807
2.25536,0.326609,0.279812
2.29479,0.447725,-0.095255
2.26772,0.3284,-0.0533191
2.29782,0.440411,-0.0408386
2.23762,0.205609,-0.0653955
2.25753,0.319285,0
2.20983,0.0945511,-0.0257501
2.27375,0.321578,-0.357263
2.2942,0.439718,0.0135766
2.27211,0.321347,-0.24718
2.20837,0.0944887,-0.206336
2.26484,0.320318,0.0532261
2.20184,0.0942092,0.0256569
2.26784,0.320742,-0.160161
2.28542,0.438034,0.0677228
2.23823,0.205664,0.039233
2.29346,0.439576,-0.149661
2.21023,0.0945683,-0.128836
2.26162,0.319863,0.133022
2.25904,0.319499,-0.106277
2.24346,0.206145,-0.11807
2.24857,0.318017,0.278837
2.28841,0.438608,-0.0949294
2.2688,0.320878,-0.0533191
2.29541,0.431649,-0.0407688
2.23036,0.197093,-0.0651628
2.26656,0.312496,0
2.20615,0.0866802,-0.0257035
2.27094,0.3131,-0.356648
2.29572,0.431707,0.0135766
2.26928,0.312871,-0.246752
2.26198,0.311865,0.053133
2.20215,0.0865232,0.0256569
2.26499,0.312279,-0.159882
2.27907,0.428576,0.06749
2.30283,0.433044,-0.150172
2.20656,0.0866962,-0.128604
2.26273,0.311967,0.133022
2.22149,0.196309,0.0908587
2.25619,0.311066,-0.106091
2.24018,0.197961,-0.117861
2.286,0.429879,-0.0947666
2.21864,0.196057,0.406091
2.29297,0.422907,-0.040699
2.23103,0.189306,-0.0651628
2.25971,0.303516,0
2.20644,0.0789782,-0.0257035
2.27202,0.30517,-0.356648
2.28148,0.420788,0.0134836
2.26642,0.304418,-0.246323
2.26306,0.303967,0.053133
2.20644,0.0789782,0.0257035
2.26211,0.30384,-0.159603
2.23164,0.189357,0.0390934
2.28863,0.422106,-0.149149
2.20685,0.0789928,-0.128604
2.25589,0.303003,0.132557
2.22216,0.188553,0.0908587
2.26122,0.30372,-0.106277
2.23688,0.189802,-0.117651
2.28356,0.421172,-0.0946037
2.26702,0.304499,-0.0532261
2.28656,0.413478,-0.0405594
2.23168,0.181517,-0.0651628
2.26075,0.295627,0
2.1987,0.071018,-0.0256104
2.26915,0.296726,-0.356033
2.28687,0.413534,0.0135069
2.23658,0.181916,-0.0130419
2.26352,0.29599,-0.245895
2.26411,0.296066,0.053133
2.2027,0.0711472,0.0256569
2.26316,0.295942,-0.159603
2.27807,0.411943,0.0673737
2.2283,0.181242,0.0390236
2.29008,0.414115,-0.149149
2.19913,0.0710316,-0.128138
2.24505,0.293574,0.131859
2.21883,0.180472,0.0906958
2.26227,0.295825,-0.106277
2.23753,0.181993,-0.117651
2.24784,0.293939,0.27835
2.28502,0.413198,-0.0946037
2.25618,0.295029,-0.0529469
2.29193,0.406192,-0.0406292
2.22034,0.172796,-0.0648137
2.25384,0.286725,0
2.20294,0.0634583,-0.0256569
2.26233,0.287806,-0.354803
2.28042,0.404153,0.0134604
2.26454,0.288087,-0.245895
2.20151,0.0634173,-0.205592
2.26116,0.287657,0.05304
2.20294,0.0634583,0.0256569
2.25626,0.287034,-0.159045
2.23777,0.174152,-0.183233
2.27556,0.403291,0.0672573
2.22493,0.173153,0.0389538
2.29152,0.406119,-0.149149
2.19936,0.0633553,-0.128138
2.25398,0.286744,0.132324
2.25139,0.286414,-0.105719
2.24491,0.28559,0.277862
2.27857,0.403825,-0.0942781
2.25719,0.287152,-0.0529469
2.28939,0.397505,-0.0405594
2.22093,0.165044,-0.0648137
2.25482,0.278855,0
2.19915,0.0556665,-0.0256104
2.26332,0.279906,-0.354803
2.28182,0.39619,0.0134604
2.22981,0.165704,-0.0129954
2.26554,0.28018,-0.245895
2.2057,0.0558324,-0.205964
2.25421,0.27878,0.0528539
2.19515,0.0555652,0.0255638
2.25725,0.279155,-0.159045
2.23439,0.166044,-0.182907
2.27302,0.394661,0.067141
2.28899,0.397434,-0.148893
2.19558,0.0555761,-0.127906
2.24705,0.277893,0.131859
2.21206,0.164385,0.0903702
2.25238,0.278553,-0.105719
2.22281,0.165184,-0.116814
2.23802,0.276777,0.276887
2.21053,0.164271,0.180955
2.28391,0.396552,-0.0944409
2.26215,0.279761,-0.05304
2.28676,0.38924,-0.0404896
2.22147,0.157679,-0.0648137
2.23794,0.158848,-0.448716
2.25176,0.270899,0
2.19532,0.048286,-0.0255638
2.25639,0.271456,-0.353573
2.27918,0.38795,0.0134371
2.23035,0.158309,-0.0129954
2.2625,0.272191,-0.245466
2.19791,0.048343,-0.205221
2.25512,0.271303,0.0528539
2.25816,0.271669,-0.159045
2.23095,0.158351,-0.182582
2.19974,0.0483832,-0.128138
2.24795,0.270441,0.131859
2.21259,0.157049,0.0903702
2.25329,0.271083,-0.105719
2.22733,0.158095,-0.117023
2.23892,0.269354,0.276887
2.27733,0.387635,-0.0941152
2.25512,0.271303,-0.0528539
2.28803,0.381655,-0.0404896
2.21799,0.150042,-0.0646974
2.25662,0.263895,0
2.19547,0.0410062,-0.0255638
2.25335,0.263513,-0.352958
2.22492,0.150511,-0.283851
2.26862,0.378416,0.0133674
2.19806,0.0410546,-0.205221
2.25601,0.263824,0.0528539
2.19147,0.0409316,0.0255173
2.25905,0.26418,-0.159045
2.23146,0.150953,-0.182582
2.27164,0.37892,0.0670246
2.21859,0.150082,0.0388142
2.2837,0.380932,-0.148382
2.1919,0.0409397,-0.127673
2.24487,0.262521,0.131627
2.21709,0.149981,0.090533
2.25418,0.26361,-0.105719
2.22386,0.150439,-0.116814
2.2398,0.261928,0.276887
2.2786,0.380082,-0.0941152
2.25204,0.26336,-0.0527608
2.27369,0.370295,-0.0402103
2.21855,0.141524,-0.0646974
2.24967,0.25433,0
2.19561,0.0325754,-0.0255638
2.25435,0.254858,-0.352958
2.22944,0.142219,-0.284356
2.22344,0.141836,-0.0129489
2.25254,0.254654,-0.244181
2.1982,0.0326139,-0.205221
2.25303,0.25471,0.0527608
2.19561,0.0325754,0.0255638
2.24815,0.254158,-0.158208
2.22804,0.142129,-0.182256
2.22314,0.141817,0.038884
2.18805,0.0324633,-0.127441
2.23396,0.252554,0.130929
2.21366,0.141212,0.0903702
2.2512,0.254503,-0.105533
2.22442,0.141898,-0.116814
2.23685,0.25288,0.2764
2.27215,0.370044,-0.0937896
2.24111,0.253362,-0.0524816
2.28287,0.363614,-0.04035
2.21105,0.133297,-0.0644646
2.25054,0.246475,0
2.19571,0.0249105,-0.0255638
2.25129,0.246557,-0.352343
2.27133,0.361775,0.0133674
2.19034,0.0248496,-0.204477
2.24596,0.245972,0.0525747
2.19171,0.0248652,0.0255173
2.24903,0.246309,-0.158208
2.27041,0.361628,0.0669082
2.22362,0.134055,0.038884
2.27854,0.362924,-0.14787
2.18815,0.0248248,-0.127441
2.24277,0.245623,0.131394
2.21015,0.133243,0.0902073
2.24811,0.246208,-0.105346
2.2249,0.134132,-0.116814
2.23772,0.24507,0.2764
2.27343,0.36211,-0.0937896
2.24198,0.245537,-0.0524816
2.28005,0.355824,-0.0402802
2.21146,0.12635,-0.0644646
2.22817,0.127305,-0.446363
2.23937,0.238135,0
2.19178,0.01798,-0.0255173
2.25206,0.239483,-0.352343
2.22638,0.127203,-0.283851
2.26455,0.353405,0.0133209
2.22034,0.126858,-0.0129257
2.25418,0.239709,-0.244181
2.1904,0.0179687,-0.204477
2.24274,0.238493,0.0524816
2.18378,0.0179144,0.0254241
2.24185,0.238398,-0.15765
2.26363,0.353261,0.0666755
2.21605,0.126613,0.0387443
2.27573,0.355149,-0.147614
2.18822,0.0179508,-0.127441
2.23559,0.237732,0.130929
2.21056,0.126299,0.0902073
2.24887,0.239144,-0.105346
2.21734,0.126686,-0.116395
2.27456,0.354967,-0.0937896
2.23877,0.23807,-0.0523886
2.27733,0.347259,-0.0402103
2.20789,0.118415,-0.0643483
2.24019,0.230316,0
2.18783,0.0103097,-0.0254707
2.24502,0.230812,-0.351113
2.27368,0.346703,0.0133674
2.22077,0.119106,-0.0129257
2.19444,0.0103409,-0.204849
2.23959,0.230253,0.0523886
2.18783,0.0103097,0.0254707
2.2387,0.230163,-0.157371
2.21743,0.118927,-0.18128
2.21648,0.118876,0.0387443
2.27301,0.346601,-0.147358
2.18827,0.0103118,-0.127441
2.24435,0.230743,0.131394
2.20699,0.118367,0.0900445
2.24571,0.230883,-0.10516
2.21378,0.118731,-0.116186
2.22744,0.229005,0.274937
2.26788,0.345819,-0.0934639
2.23959,0.230253,-0.0523886
2.20432,0.110123,-0.0642319
2.23704,0.221709,0
2.18385,0.00228718,-0.0254241
2.23798,0.221803,-0.349884
2.22327,0.11107,-0.283346
2.25911,0.336014,0.0132744
2.2172,0.110767,-0.0129024
2.24792,0.222788,-0.243325
2.19048,0.00229412,-0.204477
2.24041,0.222044,0.0523886
2.18385,0.00228718,0.0254241
2.23953,0.221956,-0.157371
2.22183,0.110998,-0.181606
2.20891,0.110353,0.0386047
2.26637,0.337094,-0.146847
2.17631,0.00227928,-0.126743
2.22928,0.220941,0.130464
2.20741,0.110278,0.0900445
2.23859,0.221863,-0.104788
2.2142,0.110617,-0.116186
2.22432,0.220448,0.27445
2.26518,0.336917,-0.0933011
2.23644,0.221649,-0.0522955
2.26782,0.329627,-0.0400009
2.21665,0.103372,-0.064581
2.24174,0.214672,0
2.17585,-0.00493618,-0.025331
2.24264,0.214757,-0.350499
2.21966,0.103512,-0.282841
2.25625,0.327946,0.0132512
2.21356,0.103228,-0.0128792
2.23677,0.214195,-0.242039
2.24114,0.214613,0.0523886
2.18385,-0.00495433,0.0254241
2.24026,0.214529,-0.157371
2.20127,0.102655,0.0384651
2.27142,0.330151,-0.147102
2.17231,-0.00492817,-0.126511
2.23,0.213547,0.130464
2.20378,0.102772,0.0898817
2.24329,0.21482,-0.104974
2.20657,0.102902,-0.115767
2.22899,0.21345,0.274937
2.26233,0.328829,-0.0931383
2.2292,0.21347,-0.0521094
2.27297,0.321873,-0.0400707
2.20503,0.0947316,-0.0642319
2.23853,0.206086,0
2.18381,-0.012959,-0.0254241
2.24735,0.206898,-0.351113
2.21606,0.0952054,-0.282336
2.25744,0.319674,0.0132512
2.21392,0.0951135,-0.0128792
2.18646,-0.0129747,-0.204105
2.22996,0.205297,0.0521094
2.17981,-0.0129353,0.0253776
2.23705,0.20595,-0.157092
2.25652,0.319544,0.0663264
2.20563,0.0947573,0.0385349
2.27262,0.321823,-0.147102
2.17627,-0.0129143,-0.126743
2.23077,0.205372,0.130464
2.20014,0.0945216,0.0897188
2.24009,0.20623,-0.104788
2.21092,0.0949847,-0.115976
2.2258,0.204914,0.27445
2.19467,0.0942864,0.179327
2.26352,0.320535,-0.0931383
2.22996,0.205297,-0.0521094
2.27012,0.313391,-0.0400009
2.19336,0.0865615,-0.0638828
2.23924,0.198272,0
2.18375,-0.0205814,-0.0254241
2.23624,0.198007,-0.349269
2.25854,0.311792,0.0132512
2.18241,-0.0205688,-0.203733
2.23863,0.198218,0.0522955
2.17976,-0.0205437,0.0253776
2.22584,0.197085,-0.156255
2.2149,0.0874115,-0.180955
2.25366,0.311119,0.0662101
2.20195,0.0869004,0.0384651
2.26977,0.313343,-0.146847
2.18021,-0.020548,-0.126976
2.22352,0.19688,0.129999
2.20046,0.0868416,0.0897188
2.23681,0.198057,-0.104602
2.20725,0.0871095,-0.115767
2.21859,0.196444,0.273475
2.191,0.0864682,0.179002
2.26463,0.312632,-0.0931383
2.23067,0.197513,-0.0521094
2.26718,0.305327,-0.0399311
2.20163,0.0795758,-0.0641155
2.21467,0.0800469,-0.443225
2.23191,0.190165,0
2.17568,-0.0277216,-0.025331
2.23689,0.190589,-0.349269
2.2556,0.303766,0.0132279
2.24285,0.191097,-0.242468
2.18632,-0.0278572,-0.204105
2.23529,0.190453,0.0522025
2.17168,-0.0276706,0.0252844
2.23443,0.19038,-0.156813
2.20721,0.0797775,-0.180304
2.20622,0.0797418,0.0385349
2.26684,0.305281,-0.146591
2.18013,-0.0277783,-0.126976
2.22416,0.189505,0.129999
2.19674,0.0793991,0.089556
2.23348,0.190299,-0.104416
2.20354,0.0796447,-0.115558
2.21528,0.188748,0.272987
2.25377,0.30352,-0.0926498
2.22732,0.189774,-0.0520164
2.18991,0.0714992,-0.0637664
2.21493,0.0723163,-0.443225
2.23256,0.182374,0
2.17557,-0.0353155,-0.025331
2.22966,0.182137,-0.348039
2.20899,0.0721223,-0.281326
2.25268,0.295371,0.0132047
2.20279,0.0719198,-0.0128095
2.23954,0.182944,-0.242039
2.17824,-0.0353589,-0.203362
2.22797,0.181999,0.0520164
2.17956,-0.0353804,0.0253776
2.22713,0.181929,-0.156255
2.20748,0.0720729,-0.180304
2.20249,0.0719101,0.0384651
2.26394,0.296848,-0.146335
2.17603,-0.035323,-0.126743
2.23277,0.18239,0.130464
2.19301,0.0716006,0.0893932
2.23811,0.182827,-0.104602
2.2038,0.0719528,-0.115558
2.21988,0.181338,0.273475
2.19154,0.0715525,0.179002
2.25481,0.295651,-0.0926498
2.18283,0.0712683,0.398199
2.23196,0.182324,-0.0521094
2.26138,0.288084,-0.0397915
2.20214,0.0638192,-0.0641155
2.23322,0.174189,0
2.17942,-0.0433693,-0.0253776
2.23425,0.17427,-0.348654
2.20527,0.06391,-0.280821
2.20704,0.0639611,-0.0128327
2.23227,0.174115,-0.241183
2.17013,-0.0431844,-0.202618
2.22863,0.173831,0.0520164
2.17542,-0.0432897,0.025331
2.23176,0.174075,-0.156534
2.20374,0.0638656,-0.179978
2.19874,0.0637207,0.0383953
2.25709,0.287538,-0.145823
2.1639,-0.0430605,-0.126045
2.2175,0.172963,0.129534
2.19725,0.0636776,0.089556
2.19606,0.063643,-0.115139
2.22053,0.1732,0.273475
2.18382,0.0632881,0.178351
2.25192,0.286879,-0.0924869
2.22863,0.173831,-0.0520164
2.2583,0.280486,-0.0397217
2.19034,0.0565913,-0.0637664
2.20753,0.0570354,-0.441656
2.22578,0.166576,0
2.22691,0.166661,-0.347424
2.20943,0.0570845,-0.281326
2.24273,0.278552,0.0131349
2.22884,0.166805,-0.240754
2.16601,-0.0499097,-0.202246
2.22119,0.166232,0.0518303
2.17128,-0.0500312,0.0252844
2.23229,0.167064,-0.156534
2.20792,0.0570454,-0.180304
2.19493,0.0567099,0.0383255
2.25402,0.279954,-0.145567
2.16775,-0.0499499,-0.126278
2.21405,0.165698,0.129301
2.19345,0.0566716,0.0893932
2.23133,0.166992,-0.10423
2.20025,0.0568472,-0.115348
2.21314,0.165631,0.2725
2.184,0.0564276,0.178351
2.24487,0.278819,-0.0921613
2.2172,0.165934,-0.0517372
2.2553,0.272123,-0.0396519
2.18653,0.0488564,-0.0636501
2.20772,0.0493298,-0.441656
2.22235,0.158521,0
2.22748,0.158887,-0.347424
2.24766,0.271201,0.0131582
2.20341,0.0492337,-0.0128095
2.23337,0.159307,-0.241183
2.17378,-0.057681,-0.20299
2.21776,0.158194,0.0517372
2.16309,-0.0573974,0.0251913
2.22092,0.158419,-0.155696
2.24278,0.270612,0.0657446
2.19512,0.0490483,0.0383255
2.25895,0.272563,-0.145823
2.16756,-0.057516,-0.126278
2.21461,0.157969,0.129301
2.18964,0.0489258,0.0892304
2.22792,0.158918,-0.104044
2.19244,0.0489886,-0.11493
2.20975,0.157622,0.272012
2.1802,0.048715,0.178025
2.24583,0.270981,-0.0921613
2.22175,0.158478,-0.0518303
2.25235,0.262998,-0.0395821
2.20397,0.0407804,-0.440872
2.21896,0.149718,0
2.17085,-0.065945,-0.0252844
2.22807,0.150333,-0.347424
2.20185,0.0407413,-0.280315
2.24074,0.261642,0.0131117
2.16558,-0.065785,-0.202246
2.22234,0.149947,0.0518303
2.16685,-0.0658236,0.0252379
2.22151,0.149891,-0.155696
2.19632,0.0406388,-0.179327
2.19529,0.0406198,0.0383255
2.25998,0.263888,-0.145823
2.15934,-0.0655954,-0.125813
2.20723,0.148927,0.128836
2.18981,0.0405184,0.0892304
2.22452,0.150094,-0.103857
2.18862,0.0404964,-0.11472
2.2143,0.149404,0.2725
2.24289,0.261893,-0.0919985
2.21835,0.149678,-0.0517372
2.18282,0.0335279,-0.0635337
2.20016,0.0337943,-0.440087
2.21941,0.142745,0
2.17063,-0.0727663,-0.0252844
2.22459,0.143077,-0.346809
2.198,0.0337612,-0.27981
2.22649,0.1432,-0.240326
2.16536,-0.0725896,-0.202246
2.21881,0.142706,0.0517372
2.17063,-0.0727663,0.0252844
2.22197,0.142909,-0.155696
2.19245,0.0336758,-0.179002
2.18741,0.0335984,0.0381859
2.24493,0.254983,-0.1448
2.1711,-0.0727819,-0.126511
2.20769,0.141991,0.128836
2.18992,0.0336371,0.0892304
2.22499,0.143103,-0.103857
2.18474,0.0335575,-0.114511
2.20683,0.141936,0.271525
2.23973,0.254393,-0.0918356
2.21482,0.142449,-0.0516442
2.2461,0.247179,-0.0394424
2.18692,0.0259572,-0.0636501
2.19635,0.0260691,-0.439303
2.21591,0.134755,0
2.17037,-0.0803413,-0.0252844
2.22113,0.135073,-0.346194
2.19811,0.02609,-0.27981
2.23447,0.2459,0.0130652
2.19581,0.0260627,-0.012763
2.22301,0.135187,-0.239897
2.16908,-0.0802936,-0.202618
2.2193,0.134962,0.0517372
2.16637,-0.0801933,0.0252379
2.21847,0.134912,-0.155417
2.18857,0.0259767,-0.178676
2.18751,0.0259642,0.0381859
2.24977,0.247584,-0.145056
2.15487,-0.0797676,-0.12558
2.20419,0.134043,0.128604
2.19003,0.0259941,0.0892304
2.18485,0.0259326,-0.114511
2.20335,0.133992,0.271037
2.17661,0.0258348,0.1777
2.23663,0.246137,-0.0916728
2.21132,0.134476,-0.0515511
2.24703,0.238552,-0.0394424
2.21641,0.126245,0
2.16605,-0.0885115,-0.0252379
2.22163,0.126543,-0.346194
2.2354,0.237318,0.0130652
2.19189,0.0175986,-0.0127397
2.22351,0.12665,-0.239897
2.15284,-0.0879717,-0.201131
2.20782,0.125756,0.0514581
2.22296,0.126619,-0.155696
2.19264,0.0176045,-0.179002
2.23052,0.236799,0.0652792
2.1916,0.0175962,0.0382557
2.24674,0.238521,-0.1448
2.15854,-0.0882047,-0.125813
2.20468,0.125578,0.128604
2.18612,0.0175522,0.0890675
2.218,0.126336,-0.103485
2.18893,0.0175747,-0.11472
2.20781,0.125756,0.271525
2.17669,0.0174765,0.1777
2.23756,0.237547,-0.0916728
2.20782,0.125756,-0.0514581
2.17506,0.00987013,-0.063301
2.18863,0.00993174,-0.437734
2.20485,0.117867,0
2.16173,-0.0958952,-0.0251913
2.21811,0.118576,-0.345579
2.23622,0.229513,0.0130652
2.22394,0.118887,-0.239897
2.16445,-0.0960161,-0.202246
2.15374,-0.0955407,0.0250982
2.20745,0.118006,-0.15458
2.1887,0.00993203,-0.178676
2.18764,0.00992725,0.0381859
2.24359,0.230269,-0.144544
2.16221,-0.0959164,-0.126045
2.20511,0.117881,0.128604
2.18616,0.00992053,0.0890675
2.21842,0.118592,-0.103485
2.17699,0.0098789,-0.114092
2.19635,0.117412,0.270062
2.17275,0.00985966,0.177375
2.23838,0.229734,-0.0916728
2.16823,0.00983917,0.395329
2.20825,0.118048,-0.0514581
2.24458,0.223248,-0.0393726
2.17508,0.00303736,-0.063301
2.19258,0.0030618,-0.438518
2.2132,0.111342,0
2.16142,-0.102686,-0.0251913
2.21058,0.11121,-0.344349
2.23294,0.222091,0.0130419
2.22033,0.111701,-0.239469
2.16016,-0.102626,-0.201875
2.20861,0.111111,0.0514581
2.15343,-0.102306,0.0250982
2.20382,0.11087,-0.154301
2.18872,0.00305641,-0.178676
2.18766,0.00305494,0.0381859
2.24033,0.222825,-0.144288
2.15791,-0.102519,-0.125813
2.18618,0.00305287,0.0890675
2.21479,0.111422,-0.103299
2.17701,0.00304006,-0.114092
2.20067,0.110711,0.27055
2.16878,0.00302857,0.177049
2.23511,0.222306,-0.09151
2.16825,0.00302783,0.395329
2.20461,0.11091,-0.051365
2.23742,0.214258,-0.039233
2.17907,-0.0049433,-0.0634174
2.22014,0.103535,-0.62218
2.18473,-0.00495613,-0.436949
2.2096,0.103043,0
2.16102,-0.110606,-0.0251913
2.21097,0.103107,-0.344349
2.18635,-0.00495982,-0.278295
2.22578,0.213143,0.0129954
2.22073,0.103562,-0.239469
2.15579,-0.110339,-0.201503
2.209,0.103016,0.0514581
2.15703,-0.110402,0.0251447
2.20422,0.102792,-0.154301
2.18473,-0.00495613,-0.178351
2.17566,-0.00493557,0.0379764
2.23318,0.213852,-0.143777
2.15353,-0.110223,-0.12558
2.20586,0.102869,0.128604
2.18618,-0.00495943,0.0890675
2.17701,-0.00493862,-0.114092
2.19709,0.10246,0.270062
2.23193,0.213732,-0.0913472
2.16825,-0.00491875,0.395329
2.20501,0.102829,-0.051365
2.23019,0.205711,-0.0390934
2.17105,-0.0125042,-0.0631846
2.21279,0.0954522,-0.620023
2.19254,-0.012628,-0.438518
2.20994,0.0953293,0
2.16063,-0.11815,-0.0251913
2.21132,0.0953885,-0.344349
2.18236,-0.0125693,-0.27779
2.22253,0.205004,0.0129722
2.21313,0.0954666,-0.238612
2.15142,-0.117646,-0.201131
2.20935,0.0953035,0.0514581
2.15663,-0.117931,0.0251447
2.20855,0.095269,-0.15458
2.1847,-0.0125828,-0.178351
2.17963,-0.0125536,0.0380462
2.23391,0.206055,-0.143777
2.14914,-0.117522,-0.125348
2.19424,0.0946517,0.127906
2.18215,-0.0125682,0.0889047
2.21154,0.0953982,-0.103113
2.17698,-0.0125383,-0.114092
2.19347,0.0946187,0.269575
2.16476,-0.012468,0.176724
2.22868,0.205572,-0.0911843
2.16428,-0.0124652,0.394611
2.20136,0.0949588,-0.051272
2.23485,0.198668,-0.0391632
2.16699,-0.0196679,-0.0630683
2.21695,0.0882664,-0.621102
2.18857,-0.0198637,-0.437734
2.20946,0.0879682,-0.238184
2.14306,-0.124319,-0.200387
2.20166,0.0876577,0.051272
2.15224,-0.124851,0.0250982
2.19689,0.0874678,-0.153743
2.18066,-0.0197919,-0.178025
2.17958,-0.0197821,0.0380462
2.23061,0.198291,-0.143521
2.14874,-0.124648,-0.125348
2.19454,0.0873742,0.127906
2.17011,-0.0196962,0.0884162
2.20386,0.0877454,-0.102741
2.17692,-0.019758,-0.114092
2.19377,0.0873438,0.269575
2.16471,-0.0196471,0.176724
2.22537,0.197826,-0.0910215
2.16817,-0.0196785,0.395329
2.20166,0.0876577,-0.051272
2.23553,0.190867,-0.0391632
2.20954,0.0802492,-0.618945
2.18456,-0.0274523,-0.436949
2.20255,0.0799951,0
2.21192,0.0803353,-0.344349
2.22387,0.189872,0.0129722
2.15057,-0.132287,-0.201131
2.20195,0.0799734,0.051272
2.14779,-0.132116,0.0250516
2.19718,0.0798002,-0.153743
2.17659,-0.0273521,-0.1777
2.1755,-0.0273384,0.0379764
2.23527,0.190845,-0.143777
2.14431,-0.131902,-0.125115
2.19084,0.0795699,0.127673
2.17402,-0.0273199,0.0885791
2.20416,0.0800535,-0.102741
2.16486,-0.0272047,-0.113464
2.16861,-0.0272519,0.177049
2.22605,0.190058,-0.0910215
2.16415,-0.0271958,0.394611
2.20195,0.0799734,-0.051272
2.17079,-0.0352389,-0.0631846
2.20982,0.0721486,-0.618945
2.18052,-0.0353968,-0.436165
2.20283,0.0719202,0
2.15129,-0.140249,-0.0250982
2.20429,0.0719681,-0.34312
2.22057,0.181393,0.0129489
2.21003,0.0721555,-0.238184
2.15007,-0.14017,-0.201131
2.20223,0.0719007,0.051272
2.15129,-0.140249,0.0250982
2.19746,0.071745,-0.153743
2.17249,-0.0352664,-0.177375
2.17538,-0.0353134,0.0379764
2.23595,0.18265,-0.143777
2.14381,-0.139762,-0.125115
2.19511,0.0716683,0.127906
2.17391,-0.0352895,0.0885791
2.20443,0.0719727,-0.102741
2.17273,-0.0352703,-0.113883
2.19038,0.0715137,0.269088
2.16053,-0.0350722,0.176398
2.21876,0.181246,-0.0906958
2.16404,-0.0351292,0.394611
2.20223,0.0719007,-0.051272
2.2288,0.175019,-0.0390236
2.16668,-0.0419806,-0.0630683
2.21389,0.06532,-0.620023
2.17256,-0.0420946,-0.434596
2.19504,0.064764,0
2.15084,-0.147006,-0.0250982
2.20451,0.0650432,-0.34312
2.17801,-0.0422003,-0.277285
2.21025,0.0652125,-0.238184
2.14962,-0.146923,-0.201131
2.20644,0.0651002,0.051365
2.14685,-0.146734,0.0250516
2.19369,0.0647239,-0.153464
2.16838,-0.0420136,-0.177049
2.17526,-0.0421469,0.0379764
2.22457,0.174687,-0.143009
2.14336,-0.146495,-0.125115
2.18734,0.0645366,0.127441
2.1658,-0.0419636,0.0882534
2.20065,0.0649295,-0.102555
2.16862,-0.0420182,-0.113674
2.18662,0.0645154,0.2686
2.16041,-0.0418591,0.176398
2.21932,0.174275,-0.0906958
2.17818,0.0642664,0.583896
2.15998,-0.0418509,0.393894
2.19445,0.0647464,-0.0510859
2.22145,0.166252,-0.038884
2.16251,-0.049829,-0.0629519
2.21411,0.0572057,-0.620023
2.18023,-0.0502374,-0.436165
2.19527,0.0567188,0
2.20078,0.0568613,-0.342505
2.17388,-0.050091,-0.27678
2.21377,0.165678,0.0129024
2.20252,0.0569061,-0.237327
2.14112,-0.154228,-0.200387
2.19467,0.0567034,0.0510859
2.14629,-0.154601,0.0250516
2.19391,0.0566837,-0.153464
2.1722,-0.0500522,-0.177375
2.17109,-0.0500268,0.0379066
2.22122,0.166235,-0.142753
2.13882,-0.154063,-0.124883
2.19155,0.0566228,0.127673
2.16962,-0.0499929,0.0884162
2.19688,0.0567605,-0.102368
2.17244,-0.0500578,-0.113883
2.19081,0.0566036,0.269088
2.21596,0.165841,-0.090533
2.18613,0.0564826,0.585966
2.15194,-0.0495855,0.392459
2.19068,0.0566001,-0.0509928
2.22999,0.159066,-0.0390236
2.17612,-0.0577439,-0.43538
2.19545,0.049055,0
2.20492,0.0492666,-0.34312
2.17766,-0.0577846,-0.277285
2.21434,0.157949,0.0129024
2.19873,0.0491283,-0.236899
2.1366,-0.161402,-0.200016
2.19486,0.0490418,0.0510859
2.14574,-0.162092,0.0250516
2.19409,0.0490247,-0.153464
2.17201,-0.0576347,-0.177375
2.16691,-0.0574994,0.0378368
2.22179,0.15848,-0.142753
2.13429,-0.161227,-0.12465
2.18775,0.0488829,0.127441
2.16544,-0.0574605,0.0882534
2.19307,0.0490019,-0.102182
2.16027,-0.0573234,-0.113255
2.17909,0.0486894,0.267625
2.16005,-0.0573175,0.176398
2.21254,0.15782,-0.0903702
2.18245,0.0487645,0.584931
2.15962,-0.0573061,0.393894
2.19486,0.0490418,-0.0510859
2.22255,0.150739,-0.038884
2.19905,0.0414561,-0.61571
2.16807,-0.0651042,-0.433811
2.19161,0.0413158,0
2.19717,0.0414207,-0.34189
2.17744,-0.0653857,-0.277285
2.21887,0.150489,0.0129257
2.20286,0.0415279,-0.237327
2.13999,-0.169173,-0.200387
2.18702,0.0412292,0.0508998
2.13719,-0.168951,0.0249585
2.17179,-0.0652161,-0.177375
2.20999,0.149887,0.0644646
2.17069,-0.065183,0.0379066
2.21834,0.150453,-0.142497
2.1377,-0.168991,-0.124883
2.18391,0.0411706,0.127208
2.16523,-0.0650189,0.0882534
2.18924,0.041271,-0.101996
2.16006,-0.0648638,-0.113255
2.17924,0.0410827,0.267625
2.15585,-0.0647374,0.176073
2.21706,0.150367,-0.090533
2.1826,0.041146,0.584931
2.15155,-0.0646081,0.392459
2.19502,0.04138,-0.0510859
2.2191,0.142336,-0.0388142
2.15387,-0.0725801,-0.0627192
2.19534,0.0333374,-0.614632
2.16781,-0.0730501,-0.433811
2.18775,0.0332221,0
2.14054,-0.177113,-0.025005
2.19336,0.0333073,-0.341275
2.17322,-0.0732324,-0.27678
2.21541,0.142099,0.0129024
2.13142,-0.176358,-0.199644
2.19115,0.0332738,0.0509928
2.13655,-0.176783,0.0249585
2.1904,0.0332624,-0.153185
2.16357,-0.0729071,-0.176724
2.17044,-0.0731385,0.0379066
2.22286,0.142577,-0.142753
2.13706,-0.176825,-0.124883
2.18405,0.0331659,0.127208
2.16497,-0.0729544,0.0882534
2.18538,0.0331861,-0.10181
2.15981,-0.0727804,-0.113255
2.17938,0.0330951,0.267625
2.20962,0.141728,-0.0902073
2.17888,0.0330874,0.583896
2.15523,-0.072626,0.393177
2.19515,0.0333346,-0.0510859
2.15762,-0.0794935,-0.0628356
2.20314,0.0265332,-0.616788
2.16365,-0.0797157,-0.433027
2.18384,0.0263008,0
2.1895,0.0263689,-0.34066
2.16902,-0.0799133,-0.276275
2.21185,0.134895,0.0128792
2.19912,0.0264848,-0.236899
2.13879,-0.183735,-0.200387
2.19125,0.02639,0.0509928
2.13997,-0.183837,0.025005
2.19049,0.0263809,-0.153185
2.16333,-0.0797038,-0.176724
2.1622,-0.0796623,0.037767
2.20736,0.134621,-0.14173
2.13252,-0.183196,-0.12465
2.18414,0.0263044,0.127208
2.16473,-0.0797555,0.0882534
2.19346,0.0264167,-0.102182
2.15957,-0.0795652,-0.113255
2.14739,-0.0791167,0.175422
2.20607,0.134542,-0.0900445
2.18283,0.0262886,0.584931
2.15499,-0.0793964,0.393177
2.19125,0.02639,-0.0509928
2.216,0.127386,-0.0387443
2.15334,-0.0868634,-0.0627192
2.19936,0.0188097,-0.61571
2.16728,-0.0874259,-0.433811
2.18392,0.0186776,0
2.18958,0.018726,-0.34066
2.16872,-0.0874841,-0.276275
2.20832,0.126944,0.012856
2.19124,0.0187402,-0.236042
2.13814,-0.1912,-0.200387
2.19133,0.0187409,0.0509928
2.13533,-0.190949,0.0249585
2.18259,0.0186662,-0.152627
2.15906,-0.0870941,-0.176398
2.16191,-0.0872093,0.037767
2.21579,0.127374,-0.142242
2.12789,-0.190283,-0.124418
2.17623,0.0186118,0.126743
2.15646,-0.0869892,0.0879277
2.18555,0.0186915,-0.10181
2.15928,-0.0871031,-0.113255
2.17955,0.0186402,0.267625
2.15109,-0.0867727,0.175747
2.20652,0.126841,-0.0900445
2.17519,0.0186029,0.582861
2.15077,-0.0867597,0.392459
2.17933,0.0186383,-0.0507136
2.22043,0.119865,-0.0388142
2.18786,0.0110739,-0.612475
2.16304,-0.0948188,-0.433027
2.18397,0.0110542,0
2.13465,-0.198402,-0.0249585
2.19754,0.0111228,-0.34189
2.16444,-0.09488,-0.27577
2.20875,0.119235,0.012856
2.18732,0.0110711,-0.235614
2.18738,0.0110714,0.0508998
2.13067,-0.198032,0.0249119
2.17865,0.0110272,-0.152348
2.15476,-0.0944555,-0.176073
2.1536,-0.094405,0.0376274
2.21223,0.119423,-0.141986
2.12324,-0.19734,-0.124185
2.18028,0.0110355,0.126976
2.14815,-0.0941661,0.0876021
2.17761,0.011022,-0.101438
2.15497,-0.0944649,-0.113046
2.17563,0.011012,0.267138
2.14679,-0.0941063,0.175422
2.20695,0.119138,-0.0900445
2.17137,0.0109904,0.581825
2.15045,-0.0942667,0.392459
2.18338,0.0110512,-0.0508067
2.20488,0.110923,-0.0385349
2.14867,-0.10208,-0.0626028
2.19559,0.00306563,-0.614632
2.15485,-0.102374,-0.431458
2.19361,0.00306286,-0.341275
2.16408,-0.102812,-0.27577
2.20517,0.110938,0.0128327
2.18734,0.00305412,-0.235614
2.12878,-0.205729,-0.199644
2.18341,0.00304862,0.0508067
2.12993,-0.20584,0.0249119
2.17469,0.00303644,-0.152069
2.15838,-0.102542,-0.176398
2.16123,-0.102677,0.037767
2.20867,0.111113,-0.14173
2.12647,-0.205505,-0.124418
2.15179,-0.102228,0.0877649
2.18163,0.00304614,-0.101624
2.16772,0.00302671,0.266163
2.14245,-0.101785,0.175096
2.20338,0.110848,-0.0898817
2.17526,0.00303725,0.582861
2.15009,-0.102148,0.392459
2.18341,0.00304862,-0.0508067
2.20923,0.103798,-0.0386047
2.14432,-0.109002,-0.0624865
2.18403,-0.00419305,-0.611397
2.15841,-0.109718,-0.432243
2.13322,-0.213299,-0.0249585
2.1857,-0.00419625,-0.340045
2.16373,-0.109988,-0.27577
2.20553,0.103624,0.0128327
2.18734,-0.0041994,-0.235614
2.12809,-0.212787,-0.199644
2.18341,-0.00419184,0.0508067
2.17868,-0.00418276,-0.152348
2.15404,-0.109496,-0.176073
2.15689,-0.109641,0.0376972
2.20504,0.103601,-0.141474
2.12578,-0.212556,-0.124418
2.17631,-0.00417822,0.126743
2.15144,-0.109363,0.0877649
2.18163,-0.00418843,-0.101624
2.15027,-0.109304,-0.112836
2.16772,-0.00416172,0.266163
2.1421,-0.108889,0.175096
2.19975,0.103353,-0.0897188
2.17526,-0.0041762,0.582861
2.14974,-0.109277,0.392459
2.1874,-0.00419952,-0.0508998
2.21357,0.0962595,-0.0386745
2.14792,-0.116703,-0.0626028
2.18401,-0.0118167,-0.611397
2.15018,-0.116826,-0.430674
2.17197,-0.0117516,0
2.13246,-0.220744,-0.0249585
2.18567,-0.0118257,-0.340045
2.15937,-0.117325,-0.275265
2.19789,0.0955774,0.0127862
2.12733,-0.220214,-0.199644
2.18338,-0.0118133,0.0508067
2.1245,-0.219921,0.0248654
2.17466,-0.0117661,-0.152069
2.15365,-0.117014,-0.176073
2.1525,-0.116952,0.0376274
2.2014,0.0957302,-0.141218
2.129,-0.220386,-0.12465
2.17628,-0.0117749,0.126743
2.15503,-0.11709,0.0879277
2.1816,-0.0118037,-0.101624
2.15386,-0.117026,-0.113046
2.16769,-0.0117284,0.266163
2.14171,-0.116366,0.175096
2.1961,0.0954998,-0.089556
2.17137,-0.0117484,0.581825
2.14934,-0.116781,0.392459
2.17938,-0.0117917,-0.0507136
2.20192,0.0876684,-0.0384651
2.1395,-0.124112,-0.0623701
2.1878,-0.0198564,-0.612475
2.15757,-0.12516,-0.432243
2.17191,-0.0197122,0
2.13164,-0.228559,-0.0249585
2.17771,-0.0197648,-0.338815
2.15892,-0.125239,-0.275265
2.20222,0.0876803,0.0128095
2.1793,-0.0197793,-0.234757
2.12651,-0.228009,-0.199644
2.17932,-0.0197794,0.0507136
2.12766,-0.228132,0.0249119
2.1746,-0.0197366,-0.152069
2.14923,-0.124676,-0.175747
2.15605,-0.125072,0.0376972
2.20174,0.087661,-0.141218
2.11626,-0.226911,-0.123952
2.16824,-0.0196788,0.126278
2.14661,-0.124524,0.0876021
2.17755,-0.0197633,-0.101438
2.15342,-0.12492,-0.113046
2.16763,-0.0196733,0.266163
2.14127,-0.124215,0.175096
2.16745,-0.0196717,0.58079
2.14105,-0.124202,0.391024
2.17532,-0.0197431,-0.0506206
2.2022,0.0803661,-0.0384651
2.17617,-0.0269681,-0.60924
2.14932,-0.131834,-0.430674
2.17183,-0.0269144,0
2.17763,-0.0269863,-0.338815
2.15453,-0.132154,-0.27476
2.1985,0.0802311,0.0127862
2.17923,-0.027006,-0.234757
2.12179,-0.234622,-0.199272
2.17125,-0.0269071,0.0505275
2.17452,-0.0269477,-0.152069
2.15278,-0.132047,-0.176073
2.19361,0.0800527,0.0638828
2.15562,-0.132221,0.0376972
2.20201,0.0803593,-0.141218
2.12344,-0.234805,-0.124418
2.16816,-0.0268689,0.126278
2.14219,-0.131397,0.0874392
2.16549,-0.0268357,-0.100879
2.14901,-0.131815,-0.112836
2.16755,-0.0268614,0.266163
2.14084,-0.131315,0.175096
2.19671,0.0801659,-0.089556
2.16737,-0.0268591,0.58079
2.14455,-0.131542,0.391742
2.17524,-0.0269567,-0.0506206
2.19847,0.0725466,-0.0383953
2.17221,-0.034503,-0.608162
2.14884,-0.139336,-0.430674
2.16373,-0.0343683,0
2.12606,-0.24261,-0.0249119
2.18543,-0.034713,-0.340045
2.15406,-0.139674,-0.27476
2.19877,0.0725564,0.0127862
2.17116,-0.0344864,-0.2339
2.11304,-0.241124,-0.198529
2.17914,-0.034613,0.0507136
2.11811,-0.241703,0.0248188
2.14833,-0.139303,-0.175747
2.18988,0.0722632,0.0637664
2.20228,0.0726724,-0.141218
2.11467,-0.24131,-0.123952
2.16805,-0.034437,0.126278
2.13773,-0.138616,0.0872764
2.17337,-0.0345214,-0.101252
2.13657,-0.138541,-0.112208
2.13639,-0.138529,0.174771
2.19299,0.0723657,-0.0893932
2.14015,-0.138772,0.391024
2.17114,-0.034486,-0.0505275
2.19872,0.0644883,-0.0383953
2.17207,-0.0424643,-0.608162
2.15223,-0.147479,-0.431458
2.16359,-0.0422985,0
2.12515,-0.2504,-0.0249119
2.17343,-0.042491,-0.3382
2.15353,-0.147568,-0.27476
2.19902,0.064497,0.0127862
2.17898,-0.0425994,-0.234757
2.175,-0.0425216,0.0506206
2.11721,-0.249464,0.0248188
2.17028,-0.0424295,-0.15179
2.14382,-0.146903,-0.175422
2.14664,-0.147096,0.0375576
2.19854,0.0644831,-0.140962
2.11774,-0.249526,-0.124185
2.16791,-0.0423831,0.126278
2.14519,-0.146996,0.0876021
2.17323,-0.042487,-0.101252
2.14004,-0.146644,-0.112418
2.15937,-0.042216,0.265188
2.13189,-0.146085,0.174445
2.18924,0.0642103,-0.0892304
2.16712,-0.0423677,0.58079
2.13963,-0.146616,0.391024
2.175,-0.0425216,-0.0506206
2.20293,0.0569162,-0.0384651
2.13755,-0.153972,-0.0623701
2.1719,-0.050046,-0.608162
2.14779,-0.154709,-0.430674
2.16343,-0.0498506,0
2.17327,-0.0500775,-0.3382
2.14905,-0.1548,-0.274255
2.19123,0.056614,0.0127397
2.17484,-0.0501136,-0.234328
2.11917,-0.257198,-0.199272
2.11235,-0.256371,0.0247722
2.16613,-0.049913,-0.151511
2.14727,-0.154672,-0.175747
2.14611,-0.154588,0.0375576
2.19077,0.0566022,-0.140451
2.12082,-0.257398,-0.124418
2.16376,-0.0498583,0.126045
2.14466,-0.154484,0.0876021
2.17307,-0.0500727,-0.101252
2.14748,-0.154687,-0.112836
2.15921,-0.0497534,0.265188
2.13137,-0.153526,0.174445
2.1631,-0.0498431,0.579755
2.1391,-0.154083,0.391024
2.19111,0.0493407,-0.0382557
2.13703,-0.161059,-0.0623701
2.17558,-0.0573495,-0.60924
2.14335,-0.161536,-0.429889
2.16325,-0.0570245,0
2.17309,-0.057284,-0.3382
2.14852,-0.161925,-0.274255
2.19141,0.0493473,0.0127397
2.16273,-0.0570109,-0.233043
2.1183,-0.264224,-0.199272
2.17066,-0.0572198,0.0505275
2.11149,-0.263375,0.0247722
2.16197,-0.0569907,-0.151232
2.14277,-0.161492,-0.175422
2.18652,0.0492373,0.0636501
2.19095,0.049337,-0.140451
2.11599,-0.263936,-0.124185
2.1556,-0.0568228,0.12558
2.14015,-0.161294,0.0874392
2.16889,-0.0571733,-0.101066
2.13501,-0.160907,-0.112208
2.15903,-0.0569133,0.265188
2.12687,-0.160294,0.17412
2.16292,-0.0570159,0.579755
2.13073,-0.160584,0.389589
2.17066,-0.0572198,-0.0505275
2.19127,0.0416919,-0.0382557
2.13247,-0.168204,-0.0622537
2.16381,-0.0645985,-0.606005
2.14278,-0.169016,-0.429889
2.15904,-0.0644559,0
2.17288,-0.0648692,-0.3382
2.14399,-0.169112,-0.27375
2.18757,0.0416215,0.0127165
2.1665,-0.0646786,-0.233472
2.10552,-0.270097,-0.198157
2.16245,-0.0645578,0.0503414
2.11453,-0.271252,0.0248188
2.16176,-0.064537,-0.151232
2.13822,-0.168657,-0.175096
2.18268,0.0415285,0.0635337
2.19111,0.0416889,-0.140451
2.11109,-0.270812,-0.123952
2.15938,-0.064466,0.125813
2.12762,-0.167821,0.0869508
2.1567,-0.0643861,-0.100507
2.13841,-0.168672,-0.112418
2.15485,-0.0643309,0.2647
2.13027,-0.16803,0.174445
2.18579,0.0415877,-0.0890675
2.13408,-0.168331,0.390307
2.17045,-0.0647965,-0.0505275
2.1914,0.0340427,-0.0382557
2.12789,-0.175318,-0.0621374
2.16357,-0.0721512,-0.606005
2.13826,-0.176173,-0.429105
2.17264,-0.0724536,-0.3382
2.14339,-0.176595,-0.27375
2.1917,0.0340473,0.0127397
2.16228,-0.0721081,-0.233043
2.10456,-0.277445,-0.198157
2.10564,-0.277586,0.0247257
2.13365,-0.175793,-0.174771
2.18281,0.0339093,0.0635337
2.19523,0.0341022,-0.140707
2.11014,-0.278179,-0.123952
2.15914,-0.0720033,0.125813
2.12702,-0.175247,0.0869508
2.15646,-0.071914,-0.100507
2.12985,-0.17548,-0.111999
2.15064,-0.07172,0.264213
2.1257,-0.175138,0.17412
2.18193,0.0338955,-0.0889047
2.15475,-0.0718569,0.577684
2.13348,-0.175779,0.390307
2.16221,-0.0721058,-0.0503414
2.19151,0.0263931,-0.0382557
2.12726,-0.182745,-0.0621374
2.13373,-0.1833,-0.42832
2.15054,-0.0792326,0
2.11258,-0.286008,-0.0248188
2.16448,-0.079746,-0.336971
2.14671,-0.184415,-0.274255
2.1918,0.0263967,0.0127397
2.16202,-0.0796555,-0.233043
2.11147,-0.285858,-0.1989
2.10862,-0.285471,0.0247722
2.12905,-0.182898,-0.174445
2.18735,0.0263431,-0.140195
2.10915,-0.285543,-0.123952
2.15887,-0.0795396,0.125813
2.13436,-0.183355,0.0872764
2.16019,-0.0795881,-0.100693
2.1332,-0.183255,-0.112208
2.14641,-0.0790805,0.263725
2.12111,-0.182216,0.173795
2.15835,-0.0795202,0.578719
2.13285,-0.183225,0.390307
2.18759,0.0187089,-0.0381859
2.12661,-0.190169,-0.0621374
2.16302,-0.0872539,-0.606005
2.13308,-0.190747,-0.42832
2.15824,-0.0870614,0
2.11157,-0.29338,-0.0248188
2.16418,-0.087301,-0.336971
2.13815,-0.191201,-0.273244
2.18388,0.0186773,0.0126932
2.16173,-0.0872018,-0.233043
2.10652,-0.292678,-0.198529
2.10365,-0.29228,0.0247257
2.13634,-0.191039,-0.175096
2.179,0.0186355,0.0634174
2.13515,-0.190933,0.037418
2.17945,0.0186393,-0.139683
2.10814,-0.292904,-0.123952
2.16257,-0.087236,0.126045
2.13371,-0.190804,0.0872764
2.16389,-0.0872892,-0.100879
2.13255,-0.1907,-0.112208
2.15009,-0.0867325,0.264213
2.12443,-0.189974,0.17412
2.15033,-0.0867423,0.576649
2.12828,-0.190319,0.389589
2.18764,0.0114545,-0.0381859
2.12597,-0.19722,-0.0621374
2.15887,-0.0942583,-0.604927
2.13243,-0.19782,-0.42832
2.15794,-0.0942179,0
2.16783,-0.0946496,-0.337585
2.1375,-0.19829,-0.273244
2.18393,0.0114351,0.0126932
2.10159,-0.299101,-0.198157
2.16535,-0.0945412,0.0504345
2.10663,-0.299818,0.0247722
2.15667,-0.0941624,-0.150953
2.1357,-0.198122,-0.175096
2.17505,0.0113886,0.063301
2.13451,-0.198012,0.037418
2.1795,0.0114119,-0.139683
2.10321,-0.299331,-0.12372
2.1503,-0.0938843,0.125348
2.12511,-0.19714,0.0869508
2.1596,-0.0942901,-0.100693
2.13191,-0.197771,-0.112208
2.14979,-0.093862,0.264213
2.11982,-0.196649,0.173795
2.15389,-0.0940411,0.577684
2.1198,-0.196648,0.388154
2.15337,-0.094018,-0.0501553
2.18366,0.00381122,-0.0381161
2.12129,-0.204257,-0.062021
2.15468,-0.101612,-0.603849
2.13954,-0.206014,-0.429889
2.14961,-0.101373,0
2.15959,-0.101844,-0.336356
2.13285,-0.20537,-0.272739
2.18396,0.00381173,0.0126932
2.15314,-0.101539,-0.232186
2.0966,-0.30586,-0.197785
2.16101,-0.101911,0.0503414
2.10953,-0.307747,0.0248188
2.15633,-0.10169,-0.150953
2.12309,-0.20443,-0.17412
2.17108,0.00378925,0.0631846
2.1338,-0.205462,0.037418
2.17952,0.00380399,-0.139683
2.0982,-0.306094,-0.123487
2.14996,-0.10139,0.125348
2.12043,-0.204174,0.0867879
2.14728,-0.101263,-0.100135
2.12723,-0.204829,-0.111999
2.14549,-0.101179,0.263725
2.12309,-0.20443,0.17412
2.17819,0.00380166,-0.0887419
2.13085,-0.205178,0.390307
2.16501,-0.102099,-0.0504345
2.17966,-0.00380424,-0.0380462
2.1271,-0.212312,-0.427536
2.16317,-0.109582,-0.336971
2.13607,-0.213208,-0.273244
2.18396,-0.00381173,0.0126932
2.15674,-0.109256,-0.232615
2.09552,-0.313177,-0.197785
2.15665,-0.109251,0.0502484
2.10053,-0.313926,0.0247257
2.13426,-0.213027,-0.175096
2.17907,-0.00380321,0.0634174
2.13307,-0.212909,0.037418
2.17953,-0.00380399,-0.139683
2.10107,-0.314006,-0.12372
2.15358,-0.109096,0.12558
2.12368,-0.211971,0.0869508
2.14692,-0.108758,-0.100135
2.11855,-0.21146,-0.11158
2.14115,-0.108466,0.263238
2.12236,-0.21184,0.17412
2.12621,-0.212224,0.389589
2.15665,-0.109251,-0.0502484
2.18364,-0.0114336,-0.0381161
2.11981,-0.219061,-0.062021
2.12244,-0.219333,-0.426751
2.14885,-0.116378,0
2.10733,-0.322466,-0.0248188
2.16278,-0.117132,-0.336971
2.13531,-0.220663,-0.273244
2.17993,-0.0114142,0.01267
2.15238,-0.116569,-0.232186
2.09441,-0.32049,-0.197785
2.09942,-0.321256,0.0247257
2.14362,-0.116094,-0.150116
2.12161,-0.219247,-0.17412
2.16705,-0.0113468,0.0630683
2.1795,-0.0114119,-0.139683
2.09996,-0.321339,-0.12372
2.1492,-0.116397,0.125348
2.11895,-0.218972,0.0867879
2.15051,-0.116468,-0.100321
2.12575,-0.219675,-0.111999
2.14473,-0.116154,0.263725
2.12546,-0.219644,0.389589
2.18358,-0.0190559,-0.0381161
2.11506,-0.226034,-0.0619047
2.1535,-0.12417,-0.603849
2.12166,-0.22674,-0.426751
2.14843,-0.123878,0
2.10224,-0.329201,-0.0247722
2.15446,-0.124225,-0.335741
2.13058,-0.227693,-0.272739
2.17588,-0.0189886,0.0126467
2.15196,-0.124081,-0.232186
2.09721,-0.328415,-0.198157
2.15583,-0.124305,0.0502484
2.09828,-0.328583,0.0247257
2.12479,-0.227075,-0.174445
2.171,-0.018946,0.0631846
2.12756,-0.227371,0.0373482
2.17146,-0.0189501,-0.139172
2.09488,-0.328049,-0.123487
2.15277,-0.124128,0.12558
2.12215,-0.226792,0.0869508
2.1461,-0.123744,-0.100135
2.121,-0.226669,-0.11179
2.14034,-0.123411,0.263238
2.1129,-0.225804,0.173469
2.12468,-0.227062,0.389589
2.15583,-0.124305,-0.0502484
2.17551,-0.0265801,-0.0379764
2.11823,-0.233855,-0.062021
2.15305,-0.131686,-0.603849
2.12476,-0.234575,-0.427536
2.14399,-0.131132,0
2.15796,-0.131986,-0.336356
2.12977,-0.235129,-0.272739
2.1718,-0.0265349,0.0126235
2.14357,-0.131106,-0.23133
2.09605,-0.335733,-0.198157
2.15539,-0.131829,0.0502484
2.10107,-0.336538,0.0247722
2.14275,-0.131056,-0.150116
2.11606,-0.233615,-0.173795
2.16692,-0.0264753,0.0630683
2.16739,-0.026481,-0.138916
2.09372,-0.33536,-0.123487
2.14834,-0.131398,0.125348
2.11737,-0.23376,0.0867879
2.14566,-0.131234,-0.100135
2.12416,-0.23451,-0.111999
2.14386,-0.131124,0.263725
2.1121,-0.233178,0.173469
2.17004,-0.0265133,-0.0884162
2.11605,-0.233614,0.388154
2.15539,-0.131829,-0.0502484
2.1714,-0.0341111,-0.0379066
2.10945,-0.240342,-0.0617883
2.12392,-0.241991,-0.427536
2.14352,-0.138615,0
2.09989,-0.34387,-0.0247722
2.15749,-0.139518,-0.336356
2.12894,-0.242562,-0.272739
2.17569,-0.0341785,0.0126467
2.1431,-0.138588,-0.23133
2.08701,-0.341761,-0.197413
2.15092,-0.139094,0.0501553
2.09199,-0.342577,0.0246791
2.14228,-0.138535,-0.150116
2.11919,-0.241452,-0.17412
2.16682,-0.0340391,0.0630683
2.16729,-0.0340464,-0.138916
2.09254,-0.342666,-0.123487
2.14388,-0.138639,0.125115
2.1086,-0.240244,0.0864623
2.13721,-0.138207,-0.0997627
2.12333,-0.241923,-0.111999
2.14339,-0.138607,0.263725
2.11127,-0.240549,0.173469
2.16594,-0.0340252,-0.0882534
2.11522,-0.240999,0.388154
2.14693,-0.138836,-0.0500623
2.17127,-0.0416905,-0.0379066
2.1086,-0.247704,-0.0617883
2.11917,-0.248945,-0.426751
2.15304,-0.14678,-0.335741
2.17556,-0.0417729,0.0126467
2.13864,-0.145798,-0.230901
2.0858,-0.349044,-0.197413
2.15043,-0.146601,0.0501553
2.08289,-0.348557,0.024586
2.11834,-0.248848,-0.17412
2.16668,-0.0416024,0.0630683
2.12506,-0.249637,0.0373482
2.16316,-0.0415348,-0.13866
2.09133,-0.349968,-0.123487
2.1394,-0.14585,0.124883
2.10775,-0.247603,0.0864623
2.13672,-0.145667,-0.0997627
2.11057,-0.247935,-0.111371
2.13101,-0.145278,0.262263
2.11042,-0.247917,0.173469
2.16181,-0.0415088,-0.0880906
2.11827,-0.24884,0.388872
2.17111,-0.0492694,-0.0379066
2.10772,-0.255063,-0.0617883
2.14003,-0.153399,-0.600614
2.11829,-0.256341,-0.426751
2.13851,-0.153291,0
2.09743,-0.358521,-0.0247722
2.14857,-0.154012,-0.335126
2.1714,-0.0492761,0.0126235
2.13811,-0.153262,-0.230901
2.08457,-0.356322,-0.197413
2.1499,-0.154107,0.0501553
2.08166,-0.355825,0.024586
2.1333,-0.152917,-0.149558
2.1135,-0.255762,-0.173795
2.16253,-0.0490746,0.0629519
2.12418,-0.257054,0.0373482
2.167,-0.049176,-0.138916
2.09009,-0.357266,-0.123487
2.14685,-0.153888,0.125348
2.1148,-0.255919,0.0867879
2.14018,-0.15341,-0.0999489
2.10969,-0.255301,-0.111371
2.13445,-0.152999,0.26275
2.11739,-0.256233,0.388872
2.17093,-0.0568477,-0.0379066
2.11476,-0.263407,-0.062021
2.13948,-0.160868,-0.600614
2.11738,-0.263734,-0.426751
2.13796,-0.160754,0
2.09223,-0.365153,-0.0247257
2.1362,-0.160622,-0.333281
2.12234,-0.264352,-0.272234
2.16722,-0.0567507,0.0126002
2.1336,-0.160426,-0.230473
2.08332,-0.363597,-0.197413
2.08829,-0.364465,0.0246791
2.13674,-0.160662,-0.149837
2.11655,-0.26363,-0.17412
2.15835,-0.0565183,0.0628356
2.16282,-0.0566354,-0.13866
2.08883,-0.36456,-0.123487
2.14231,-0.161081,0.125115
2.10993,-0.262806,0.0866251
2.13565,-0.16058,-0.0997627
2.10879,-0.262663,-0.111371
2.13391,-0.160449,0.26275
2.11258,-0.263136,0.388154
2.14935,-0.16161,-0.0501553
2.16672,-0.0643066,-0.0378368
2.10986,-0.270279,-0.0619047
2.1389,-0.168335,-0.600614
2.11256,-0.270625,-0.425967
2.1334,-0.167902,0
2.14351,-0.168698,-0.334511
2.11747,-0.271254,-0.271729
2.16301,-0.0641967,0.012577
2.08595,-0.371565,-0.197785
2.14479,-0.168798,0.0500623
2.08701,-0.371752,0.0246791
2.13218,-0.167807,-0.149558
2.11562,-0.271017,-0.17412
2.15814,-0.064052,0.0628356
2.11836,-0.271369,0.0372783
2.15862,-0.0640663,-0.138404
2.07969,-0.370448,-0.123022
2.12979,-0.167618,0.124418
2.11693,-0.271185,0.0869508
2.13508,-0.168034,-0.0997627
2.11182,-0.270531,-0.11158
2.13333,-0.167897,0.26275
2.10771,-0.270004,0.173469
2.10774,-0.270008,0.387437
2.16249,-0.0713595,-0.037767
2.10499,-0.276753,-0.0617883
2.13833,-0.175427,-0.600614
2.11943,-0.278651,-0.427536
2.13283,-0.174976,0
2.09363,-0.3801,-0.0247722
2.1205,-0.278792,-0.272234
2.16678,-0.071501,0.0126002
2.07687,-0.377057,-0.197041
2.14023,-0.175583,0.0499692
2.08183,-0.377957,0.0246325
2.13559,-0.175202,-0.149837
2.11471,-0.278031,-0.17412
2.15791,-0.0712083,0.0628356
2.16238,-0.0713559,-0.13866
2.08237,-0.378056,-0.123255
2.13719,-0.175333,0.124883
2.10809,-0.277162,0.0866251
2.10695,-0.277011,-0.111371
2.13276,-0.17497,0.26275
2.10285,-0.276472,0.173144
2.15704,-0.0711794,-0.0879277
2.10684,-0.276996,0.387437
2.14421,-0.17591,-0.0500623
2.16223,-0.0789075,-0.037767
2.10401,-0.284099,-0.0617883
2.10678,-0.284473,-0.425182
2.12823,-0.182079,0
2.13837,-0.182947,-0.333896
2.11951,-0.286192,-0.272234
2.16652,-0.0790641,0.0126002
2.1358,-0.182727,-0.230901
2.07554,-0.384305,-0.197041
2.1396,-0.183052,0.0499692
2.07263,-0.383765,0.0245394
2.10582,-0.284344,-0.173469
2.15365,-0.0785945,0.0627192
2.11647,-0.285782,0.0372783
2.15414,-0.0786124,-0.138148
2.08104,-0.385323,-0.123255
2.14054,-0.183133,0.125115
2.10315,-0.283984,0.0864623
2.1299,-0.182223,-0.0995766
2.10201,-0.28383,-0.111162
2.12423,-0.181737,0.261775
2.09792,-0.283277,0.172818
2.15278,-0.0785626,-0.0877649
2.1396,-0.183052,-0.0499692
2.16595,-0.0862364,-0.0378368
2.10305,-0.291075,-0.0617883
2.10582,-0.291458,-0.425182
2.12363,-0.188781,0
2.08707,-0.393601,-0.0247257
2.13775,-0.190037,-0.333896
2.11462,-0.292675,-0.271729
2.15825,-0.0859298,0.0125537
2.13122,-0.189456,-0.230473
2.07426,-0.391185,-0.197041
2.13898,-0.190147,0.0499692
2.07921,-0.392118,0.0246325
2.10487,-0.291326,-0.173469
2.14939,-0.0855768,0.0626028
2.16185,-0.086073,-0.13866
2.07975,-0.392221,-0.123255
2.13594,-0.189876,0.124883
2.11012,-0.292052,0.0867879
2.12929,-0.189285,-0.0995766
2.10106,-0.290799,-0.111162
2.12757,-0.189132,0.262263
2.16163,-0.0940007,-0.037767
2.09801,-0.298218,-0.0616719
2.12871,-0.1971,-0.598457
2.10086,-0.298622,-0.424398
2.1269,-0.196932,0
2.07775,-0.399736,-0.0246325
2.12917,-0.197142,-0.332666
2.10567,-0.299307,-0.270719
2.14993,-0.0934921,0.0125072
2.12655,-0.1969,-0.230044
2.13429,-0.197616,0.0498762
2.07775,-0.399736,0.0246325
2.09984,-0.298477,-0.173144
2.14906,-0.0934541,0.0626028
2.11046,-0.299987,0.0372085
2.15753,-0.0938226,-0.138404
2.08222,-0.400596,-0.123487
2.13126,-0.197336,0.12465
2.10508,-0.299222,0.0866251
2.1246,-0.196719,-0.0993905
2.09998,-0.298498,-0.111162
2.12686,-0.196929,0.262263
2.09194,-0.297355,0.172493
2.13827,-0.197985,-0.0499692
2.1533,-0.10117,-0.0376274
2.09696,-0.30554,-0.0616719
2.10757,-0.307085,-0.425967
2.12222,-0.203973,0
2.0842,-0.408525,-0.0247257
2.12847,-0.204573,-0.332666
2.10854,-0.307227,-0.271224
2.15359,-0.101184,0.0125305
2.12189,-0.203941,-0.229616
2.07141,-0.406018,-0.197041
2.07635,-0.406987,0.0246325
2.12102,-0.203858,-0.149
2.09878,-0.305805,-0.173144
2.14472,-0.100767,0.0624865
2.1532,-0.101166,-0.138148
2.07297,-0.406326,-0.123022
2.12658,-0.204392,0.124418
2.10402,-0.306568,0.0866251
2.12788,-0.204516,-0.0995766
2.09893,-0.305826,-0.111162
2.12616,-0.204352,0.262263
2.12961,-0.204683,-0.0497831
2.16094,-0.108712,-0.037767
2.09198,-0.311902,-0.0615556
2.10654,-0.314072,-0.425967
2.12949,-0.211801,0
2.08283,-0.415434,-0.0247257
2.13171,-0.212022,-0.333281
2.10751,-0.314218,-0.271224
2.15724,-0.108526,0.0125537
2.1329,-0.212139,0.0498762
2.07498,-0.41387,0.0246325
2.12034,-0.21089,-0.149
2.10564,-0.313939,-0.173795
2.15237,-0.108281,0.0627192
2.10837,-0.314346,0.0372085
2.14887,-0.108105,-0.137892
2.07553,-0.413979,-0.123255
2.12986,-0.211838,0.12465
2.09113,-0.311776,0.0861366
2.11923,-0.210781,-0.0992044
2.10185,-0.313374,-0.111371
2.12547,-0.211401,0.262263
2.09381,-0.312175,0.172818
2.1475,-0.108036,-0.0876021
2.13688,-0.212535,-0.0499692
2.15254,-0.1162,-0.0376274
2.09478,-0.320172,-0.0616719
2.09762,-0.320606,-0.424398
2.12074,-0.218784,0
2.13485,-0.220239,-0.333896
2.11027,-0.32254,-0.271729
2.15682,-0.116432,0.0125537
2.12437,-0.219158,-0.230044
2.1321,-0.219955,0.0498762
2.06561,-0.419879,0.0245394
2.10054,-0.321052,-0.173469
2.14796,-0.115953,0.0626028
2.1072,-0.322071,0.0372085
2.15244,-0.116195,-0.138148
2.07009,-0.420788,-0.123022
2.12907,-0.219643,0.12465
2.09393,-0.320042,0.0862994
