2.90674,0.273233,0.050961
2.85229,0.128026,-0.166278
2.91273,0.273797,0.119191
2.91492,0.418489,-0.137174
2.88729,0.271405,-0.151984
2.92125,0.419398,-0.0686728
2.88703,0.260708,-0.0843626
2.92356,0.408798,0
2.8452,0.11726,-0.26582
2.92673,0.409241,0.0687658
2.87337,0.11842,0.0334798
2.90063,0.405592,-0.204805
2.90374,0.262217,0.0508912
2.84875,0.117406,-0.166045
2.90576,0.262399,0.118865
2.90061,0.405589,-0.136429
2.88031,0.260102,-0.151565
2.87995,0.249938,-0.0841298
2.90515,0.395891,0
2.84162,0.107178,-0.265448
2.92418,0.398483,0.0686728
2.86577,0.108089,0.0333866
2.88621,0.39331,-0.203689
2.84914,0.107462,-0.166045
2.90267,0.25191,0.118702
2.902,0.395462,-0.136429
2.87722,0.249701,-0.151356
2.91625,0.397404,-0.0684867
2.93481,0.537051,-0.052078
2.88873,0.241051,-0.0843626
2.91041,0.386781,0
2.84594,0.0978904,-0.26582
2.92548,0.388784,0.0686728
2.87011,0.0987218,0.0334332
2.8875,0.383736,-0.203689
2.8764,0.240022,-0.235632
2.84948,0.0980124,-0.166045
2.90349,0.242282,0.118702
2.89934,0.385309,-0.136243
2.87803,0.240158,-0.151356
2.91359,0.387203,-0.0683936
2.93273,0.526097,-0.0520082
2.88159,0.230329,-0.0841298
2.90778,0.376107,0
2.84228,0.0878333,-0.265448
2.92285,0.378057,0.0685797
2.87044,0.0887033,0.0334332
2.88486,0.373143,-0.20341
2.89433,0.231347,0.0506818
2.84183,0.0878192,-0.16558
2.90034,0.231828,0.11854
2.8967,0.374674,-0.136057
2.87885,0.230111,-0.151356
2.91492,0.377031,-0.0683936
2.9307,0.514652,-0.0519384
2.88241,0.219765,-0.0841298
2.90517,0.364948,0
2.84258,0.0774144,-0.265448
2.92025,0.366843,0.0684867
2.86674,0.0780724,0.0333866
2.88621,0.362566,-0.20341
2.83814,0.0772933,-0.165347
2.90515,0.221499,0.118702
2.89806,0.364054,-0.136057
2.87171,0.21895,-0.150937
2.90587,0.221554,0.23791
2.92478,0.513613,-0.120982
2.91232,0.365846,-0.0683006
2.92845,0.504253,-0.0518686
2.87914,0.209915,-0.0840135
2.90636,0.355312,0
2.83486,0.0677978,-0.264705
2.92542,0.357642,0.0685797
2.87098,0.0686617,0.0334332
2.8874,0.352994,-0.20341
2.84237,0.0679773,-0.16558
2.89391,0.210993,0.118214
2.89132,0.353473,-0.135685
2.91057,0.212207,0.238235
2.93019,0.494027,-0.0518686
2.87586,0.199586,-0.0838971
2.89964,0.344221,0
2.83906,0.0579824,-0.265077
2.91474,0.346014,0.0683006
2.85521,0.0583122,0.0332469
2.88069,0.341971,-0.202852
2.84259,0.0580545,-0.16558
2.89064,0.200612,0.118051
2.88856,0.342906,-0.135499
2.86915,0.199121,-0.150728
2.90731,0.201769,0.23791
2.91639,0.491699,-0.120494
2.92409,0.481984,-0.0517289
2.87657,0.189045,-0.0838971
2.90088,0.333592,0
2.83926,0.047577,-0.265077
2.91996,0.335786,0.0683936
2.8634,0.0479816,0.0333401
2.88192,0.331412,-0.202852
2.86427,0.188237,-0.23433
2.83879,0.0475692,-0.165347
2.92771,0.336677,0.171626
2.89934,0.190541,0.118377
2.89774,0.33323,-0.135871
2.87385,0.188866,-0.150937
2.90008,0.19059,0.237259
2.91028,0.479707,-0.120168
2.92559,0.472795,-0.0517289
2.87316,0.179758,-0.0837807
2.89794,0.324033,0
2.92994,0.473498,0.0172498
2.83143,0.0385491,-0.264333
2.91703,0.326167,0.0683006
2.85954,0.0389318,0.0332935
2.88295,0.322357,-0.202852
2.86485,0.179238,-0.23433
2.83493,0.0385968,-0.165115
2.89194,0.180933,0.118051
2.89083,0.323238,-0.135499
2.86645,0.179338,-0.150518
2.90066,0.181478,0.237259
2.90783,0.469925,-0.120005
2.91537,0.460707,-0.0515195
2.86978,0.169491,-0.0836644
2.89508,0.313484,0
2.85966,0.0289492,-0.0332935
2.92367,0.462018,0.0172033
2.88293,0.170268,-0.0167848
2.83553,0.0287049,-0.264705
2.91815,0.315982,0.0683006
2.85966,0.0289492,0.0332935
2.88803,0.31272,-0.203131
2.83106,0.0286596,-0.164882
2.89256,0.170836,0.118051
2.89194,0.313144,-0.135499
2.87105,0.169566,-0.150728
2.90945,0.459771,-0.120005
2.90225,0.31426,-0.0679284
2.92107,0.450117,-0.0515893
2.87041,0.15847,-0.0836644
2.89228,0.301949,0
2.92938,0.451397,0.0172265
2.83163,0.0177913,-0.264333
2.91536,0.304359,0.0682075
2.85975,0.017968,0.0332935
2.8773,0.300385,-0.202294
2.89116,0.159616,0.0505422
2.9037,0.447441,-0.188291
2.83115,0.0177883,-0.164882
2.91122,0.303926,0.170464
2.88521,0.159287,0.117725
2.8812,0.300792,-0.13494
2.87168,0.15854,-0.150728
2.89793,0.15999,0.236933
2.9112,0.448596,-0.120005
2.90343,0.303113,-0.0679284
2.91456,0.439746,-0.0514497
2.8709,0.149452,-0.0836644
2.89322,0.292862,0
2.93078,0.442192,0.0172265
2.87658,0.291177,-0.311438
2.83168,0.00889594,-0.264333
2.85979,0.00898427,0.0332935
2.87029,0.290541,-0.201736
2.88765,0.150325,0.0504724
2.83119,0.00889441,-0.164882
2.91216,0.294779,0.170464
2.8857,0.150223,0.117725
2.87816,0.291337,-0.134754
2.86419,0.149103,-0.150309
2.89444,0.150678,0.236608
2.90864,0.438852,-0.119842
2.90039,0.293588,-0.0678353
2.92004,0.430153,-0.0515195
2.86741,0.139237,-0.083548
2.89422,0.282761,0
2.85581,-0.000996294,-0.0332469
2.92835,0.431377,0.0172033
2.88056,0.139875,-0.0167616
2.87362,0.280748,-0.31101
2.83169,-0.00098788,-0.264333
2.91334,0.284629,0.0681145
2.85181,-0.000994898,0.0332004
2.87526,0.280909,-0.202015
2.85513,0.138641,-0.233353
2.91925,0.430036,0.0858753
2.88816,0.140244,0.0504724
2.8352,-0.000989104,-0.165115
2.91317,0.284613,0.170464
2.88221,0.139956,0.117563
2.88711,0.282067,-0.135126
2.8607,0.138911,-0.1501
2.89495,0.140574,0.236608
2.9062,0.428114,-0.119679
2.89742,0.283074,-0.0677423
2.91368,0.41831,-0.0513799
2.8679,0.128726,-0.083548
2.89125,0.271777,0
2.84778,-0.011432,-0.0331538
2.84615,0.127749,-0.362642
2.91803,0.418935,0.0171335
2.83167,-0.0113673,-0.264333
2.85178,-0.011448,0.0332004
2.87627,0.270368,-0.202015
2.85562,0.128174,-0.233353
2.88066,0.129298,0.0503327
2.9042,0.41695,-0.188035
2.82719,-0.0113493,-0.16465
2.91022,0.273559,0.170231
2.8827,0.12939,0.117563
2.88415,0.271108,-0.13494
2.86518,0.128604,-0.150309
2.89544,0.129962,0.236608
2.90379,0.416891,-0.119517
2.89844,0.272452,-0.0677423
2.9072,0.407028,-0.0512403
2.86433,0.118549,-0.0834316
2.89219,0.261683,0
2.84261,0.11765,-0.362137
2.92344,0.409302,0.0171568
2.8695,0.118763,-0.0166918
2.86367,0.259103,-0.309725
2.82763,-0.0212211,-0.263961
2.85573,-0.021432,0.0332469
2.87719,0.260327,-0.202015
2.85605,0.118206,-0.233353
2.88509,0.119408,0.0504026
2.90564,0.40681,-0.188035
2.82314,-0.0211874,-0.164417
2.90718,0.26304,0.169998
2.88713,0.119493,0.117725
2.88109,0.26068,-0.134754
2.85763,0.118272,-0.14989
2.88393,0.11936,0.235632
2.90127,0.406199,-0.119354
2.8914,0.261612,-0.0675562
2.90853,0.397386,-0.0512403
2.85273,0.108594,-0.0830826
2.88507,0.251397,0
2.92478,0.399606,0.0171568
2.86847,0.249951,-0.310153
2.81958,-0.0305109,-0.263218
2.90819,0.253412,0.0679284
2.85164,-0.0308579,0.0332004
2.87009,0.250092,-0.201457
2.91963,0.398902,0.0857589
2.88147,0.109689,0.0503327
2.90302,0.396633,-0.187779
2.82305,-0.0305486,-0.164417
2.91201,0.253745,0.170231
2.87952,0.109615,0.1174
2.87796,0.250778,-0.134568
2.862,0.108947,-0.1501
2.89228,0.1101,0.236282
2.9026,0.396576,-0.119354
2.89225,0.252023,-0.0675562
2.91387,0.387758,-0.0513101
2.86108,0.0989114,-0.0833153
2.88194,0.240991,0
2.91823,0.388338,0.0171103
2.87423,0.0993662,-0.0167151
2.86933,0.239936,-0.310153
2.81945,-0.0403537,-0.263218
2.90507,0.242925,0.0678353
2.83952,-0.0406408,0.0330607
2.86697,0.239739,-0.201178
2.92497,0.389235,0.0858753
2.88184,0.0996291,0.0503327
2.90439,0.386496,-0.187779
2.82293,-0.0404034,-0.164417
2.90492,0.242912,0.169766
2.8759,0.0994236,0.117237
2.87882,0.24073,-0.134568
2.85837,0.0988177,-0.14989
2.88866,0.0998649,0.235957
2.90397,0.386441,-0.119354
2.89312,0.241925,-0.0675562
2.86542,0.0885485,-0.0834316
2.89078,0.231064,0
2.84335,-0.0511192,-0.0331072
2.91566,0.377127,0.017087
2.86623,0.229102,-0.309725
2.81929,-0.0506866,-0.263218
2.84735,-0.0511911,0.0331538
2.86783,0.22923,-0.201178
2.84517,0.0879228,-0.232377
2.92241,0.378,0.0857589
2.90182,0.375337,-0.187524
2.82276,-0.0507491,-0.164417
2.90579,0.232264,0.169766
2.87624,0.0888829,0.117237
2.87172,0.22954,-0.134196
2.85073,0.0880944,-0.149472
2.88502,0.0891543,0.235632
2.89744,0.37477,-0.119028
2.88601,0.230683,-0.0673701
2.9046,0.365906,-0.0511006
2.8617,0.0789349,-0.0833153
2.89153,0.221476,0
2.84316,-0.0605486,-0.0331072
2.91293,0.366955,0.0170638
2.8191,-0.0600362,-0.263218
2.85116,-0.0607189,0.0332004
2.86857,0.219717,-0.201178
2.84943,0.0785966,-0.232702
2.91174,0.366806,0.0854098
2.87847,0.0793974,0.0502629
2.89909,0.365213,-0.187268
2.82258,-0.0601102,-0.164417
2.90257,0.222321,0.169533
2.87652,0.0793436,0.117237
2.87645,0.220321,-0.134382
2.85499,0.0787499,-0.149681
2.88132,0.079476,0.235306
2.89074,0.36416,-0.118702
2.88277,0.220805,-0.067277
2.90586,0.355764,-0.0511006
2.85796,0.0688482,-0.0831989
2.81541,0.0678231,-0.563249
2.8883,0.211089,0
2.84293,-0.0704735,-0.0331072
2.91419,0.356784,0.0170638
2.85979,0.209005,-0.308868
2.81888,-0.0698771,-0.263218
2.83894,-0.0703744,0.0330607
2.86932,0.209702,-0.201178
2.91698,0.357125,0.0855262
2.89639,0.354605,-0.187012
2.81836,-0.0698642,-0.164185
2.89536,0.211605,0.169068
2.87278,0.0692052,0.117074
2.87321,0.209987,-0.134196
2.85126,0.0686867,-0.149472
2.87759,0.069321,0.234981
2.89199,0.354066,-0.118702
2.87156,0.209866,-0.0669978
2.90317,0.34464,-0.0510308
2.8502,0.0582101,-0.0829662
2.88905,0.200502,0
2.90754,0.345159,0.0170173
2.86335,0.0584788,-0.0166453
2.86053,0.198523,-0.308868
2.81064,-0.0799811,-0.262474
2.84665,-0.081006,0.0331538
2.86211,0.198632,-0.20062
2.84594,0.0581231,-0.232377
2.91826,0.346432,0.0855262
2.89767,0.343987,-0.187012
2.9001,0.201269,0.169301
2.87302,0.0586761,0.117074
2.86998,0.199178,-0.13401
2.85548,0.0583181,-0.149681
2.8858,0.0589371,0.235632
2.89327,0.343465,-0.118702
2.88029,0.199894,-0.067184
2.90424,0.335519,-0.0510308
2.85836,0.0493944,-0.0831989
2.80404,0.0484557,-0.560896
2.88168,0.190897,0
2.83272,0.0489512,-0.360622
2.90463,0.335564,0.016994
2.81037,-0.08881,-0.262474
2.83439,-0.0895691,0.0330141
2.85874,0.189377,-0.200341
2.84611,0.0491826,-0.232377
2.91537,0.336804,0.0854098
2.87113,0.0496151,0.0501233
2.89477,0.334425,-0.186756
2.82181,-0.0891714,-0.164417
2.90072,0.192157,0.169301
2.8652,0.0495124,0.116748
2.87059,0.190162,-0.13401
2.84367,0.0491405,-0.149053
2.878,0.0497336,0.234981
2.89433,0.334374,-0.118702
2.87691,0.190581,-0.0670909
2.90539,0.325378,-0.0510308
2.85452,0.0393606,-0.0830826
2.80812,0.0387208,-0.56168
2.88633,0.181086,0
2.83406,-0.0994632,-0.0330141
2.82835,0.177449,-0.44089
2.90976,0.325867,0.0170173
2.85385,0.179049,-0.308011
2.81005,-0.0986203,-0.262474
2.83806,-0.0996035,0.0330607
2.85938,0.179396,-0.200341
2.84227,0.0391918,-0.232052
2.9046,0.32529,0.0850607
2.80951,-0.0986014,-0.16372
2.8934,0.18153,0.168836
2.86535,0.03951,0.116748
2.87522,0.18039,-0.134196
2.83983,0.0391581,-0.148843
2.87417,0.0396315,0.234655
2.88754,0.323379,-0.118377
2.87357,0.180286,-0.0669978
2.89861,0.313867,-0.0508912
2.84665,0.0288177,-0.0828498
2.80824,0.0284289,-0.56168
2.88298,0.170271,0
2.83368,-0.109849,-0.0330141
2.82898,0.167082,-0.44089
2.82903,0.0286393,-0.360117
2.90298,0.31434,0.0169708
2.85981,0.0289509,-0.0166221
2.85449,0.168588,-0.308011
2.80967,-0.108918,-0.262474
2.83768,-0.110004,0.0330607
2.864,0.16915,-0.20062
2.83443,0.028694,-0.231401
2.90975,0.315073,0.0851771
2.86742,0.029028,0.0500535
2.88915,0.312842,-0.186244
2.80913,-0.108897,-0.16372
2.89404,0.170925,0.168836
2.86947,0.0290488,0.116911
2.86789,0.16938,-0.133824
2.84795,0.0288308,-0.149262
2.87429,0.0290975,0.234655
2.8887,0.312794,-0.118377
2.8782,0.169989,-0.0670909
2.89566,0.303836,-0.0508214
2.85073,0.0194055,-0.0829662
2.8044,0.0190901,-0.560896
2.87953,0.160488,0
2.8373,-0.119413,-0.0330607
2.82557,0.15748,-0.440275
2.82514,0.0192313,-0.359612
2.90003,0.304295,0.0169475
2.85589,0.0194406,-0.0165988
2.85106,0.158901,-0.307583
2.80929,-0.118234,-0.262474
2.8373,-0.119413,0.0330607
2.86056,0.159431,-0.200341
2.83849,0.0193222,-0.231726
2.91078,0.305423,0.0851771
2.8675,0.0195197,0.0500535
2.89017,0.30326,-0.186244
2.89061,0.161105,0.168603
2.86556,0.0195065,0.116748
2.86843,0.159869,-0.133824
2.83205,0.0192784,-0.148425
2.87038,0.0195393,0.23433
2.88575,0.302796,-0.118214
2.86677,0.159777,-0.0668117
2.90068,0.294129,-0.0508912
2.84278,0.00942722,-0.0827335
2.80444,0.00930009,-0.560896
2.88407,0.150643,0
2.83287,-0.129135,-0.0330141
2.82216,0.147409,-0.439661
2.81725,0.00934257,-0.358602
2.90107,0.294169,0.0169475
2.80488,-0.127859,-0.262102
2.83686,-0.129317,0.0330607
2.85712,0.149235,-0.200062
2.83854,0.00941316,-0.231726
2.90785,0.294856,0.0850607
2.88724,0.292766,-0.185989
2.80433,-0.127834,-0.163487
2.89115,0.151013,0.168603
2.86161,0.00948966,0.116586
2.86099,0.149438,-0.133451
2.84408,0.00943153,-0.149053
2.87442,0.00953215,0.234655
2.88281,0.292317,-0.118051
2.86332,0.149559,-0.0667187
2.89776,0.283107,-0.0508214
2.8428,-0.000991533,-0.0827335
2.79269,-0.000974057,-0.558542
2.87661,0.139684,0
2.82838,-0.13932,-0.0329675
2.82663,0.137257,-0.440275
2.8252,-0.000985397,-0.359612
2.90213,0.283535,0.0169475
2.85595,-0.000996121,-0.0165988
2.85212,0.138495,-0.307583
2.80439,-0.138138,-0.262102
2.82438,-0.139123,0.032921
2.85366,0.13857,-0.199783
2.90891,0.284197,0.0850607
2.86356,-0.000998776,0.0499837
2.88432,0.281795,-0.185733
2.80384,-0.138111,-0.163487
2.8877,0.140222,0.168371
2.86163,-0.0009981,0.116586
2.86152,0.138951,-0.133451
2.82812,-0.000986413,-0.148215
2.91069,0.141339,0.357808
2.87045,-0.00100118,0.23433
2.89182,0.282527,-0.118377
2.86385,0.139064,-0.0667187
2.89868,0.273496,-0.0508214
2.84678,-0.010434,-0.0828498
2.7966,-0.0102501,-0.559327
2.87306,0.129963,0
2.82391,-0.148489,-0.032921
2.81917,0.127525,-0.439046
2.89509,0.273157,0.016901
2.84859,0.128856,-0.307154
2.80392,-0.147438,-0.262102
2.8319,-0.148909,0.0330141
2.85809,0.129285,-0.200062
2.83057,-0.0103746,-0.231075
2.90188,0.273797,0.084828
2.80736,-0.147619,-0.16372
2.89214,0.130825,0.168603
2.86161,-0.0104884,0.116586
2.83609,-0.0103948,-0.148634
2.86246,-0.0104915,0.233679
2.87683,0.271434,-0.117725
2.87228,0.129927,-0.0669048
2.84272,-0.0203418,-0.0827335
2.79654,-0.0200114,-0.559327
2.8695,0.119767,0
2.82337,-0.158345,-0.032921
2.82355,0.117849,-0.439661
2.81323,-0.0201308,-0.358097
2.89603,0.26305,0.016901
2.84505,0.118746,-0.306726
2.79941,-0.157001,-0.261731
2.83136,-0.158793,0.0330141
2.85055,0.118976,-0.199504
2.83051,-0.0202545,-0.231075
2.89485,0.262943,0.0845953
2.85949,-0.0204618,0.0499139
2.8822,0.261794,-0.185477
2.81081,-0.15764,-0.163952
2.88859,0.120563,0.168371
2.86155,-0.0204766,0.116586
2.8624,0.11947,-0.133451
2.83604,-0.020294,-0.148634
2.86639,-0.0205112,0.234004
2.88174,0.261752,-0.117888
2.86073,0.119401,-0.0666256
2.89658,0.252399,-0.0507516
2.84263,-0.0307615,-0.0827335
2.78861,-0.0301769,-0.557758
2.87392,0.1094,0
2.82676,-0.168931,-0.0329675
2.81606,0.107198,-0.438431
2.81314,-0.0304424,-0.358097
2.889,0.251739,0.0168546
2.84779,-0.0308173,-0.0165523
2.84547,0.108317,-0.306726
2.79882,-0.167261,-0.261731
2.83076,-0.16917,0.0330141
2.85496,0.108678,-0.199783
2.83042,-0.0306294,-0.231075
2.89978,0.252678,0.0847116
2.8554,-0.0308997,0.0498441
2.87916,0.250881,-0.185221
2.79826,-0.167228,-0.163254
2.88502,0.109823,0.168138
2.86146,-0.0309653,0.116586
2.86282,0.108978,-0.133451
2.83994,-0.0307324,-0.148843
2.90407,0.110548,0.356833
2.8663,-0.0310176,0.234004
2.87869,0.250841,-0.117725
2.85716,0.108762,-0.0665326
2.88947,0.241621,-0.050612
2.83051,-0.0405117,-0.0823844
2.79241,-0.0399664,-0.558542
2.87029,0.0992299,0
2.82217,-0.178544,-0.032921
2.82037,0.0975042,-0.439046
2.81301,-0.0402613,-0.358097
2.88987,0.241653,0.0168546
2.85166,-0.0408144,-0.0165756
2.84185,0.098247,-0.306298
2.79424,-0.176778,-0.261359
2.83015,-0.179049,0.0330141
2.85133,0.0985746,-0.199504
2.83029,-0.0405086,-0.231075
2.90463,0.242888,0.084828
2.85927,-0.0409234,0.0499139
2.88002,0.24083,-0.185221
2.79766,-0.176994,-0.163254
2.88139,0.099614,0.167906
2.84934,-0.0407813,0.116097
2.8552,0.0987083,-0.133079
2.83981,-0.0406448,-0.148843
2.90444,0.100411,0.356833
2.86617,-0.0410221,0.234004
2.87955,0.240791,-0.117725
2.85752,0.0987886,-0.0665326
2.88627,0.231718,-0.0505422
2.83436,-0.0499677,-0.0825008
2.78834,-0.0491564,-0.557758
2.8666,0.0895868,0
2.82555,-0.188167,-0.0329675
2.81286,-0.0495888,-0.358097
2.89065,0.23207,0.0168546
2.83421,0.0885746,-0.305441
2.78967,-0.185777,-0.260987
2.81358,-0.18737,0.0328279
2.84366,0.08887,-0.198945
2.82616,-0.0498231,-0.23075
2.90143,0.232935,0.0847116
2.85512,-0.0503337,0.0498441
2.79705,-0.186269,-0.163254
2.88171,0.0900589,0.167906
2.85319,-0.0502997,0.11626
2.85551,0.0892401,-0.133079
2.83567,-0.0499908,-0.148634
2.90079,0.0906553,0.356346
2.86203,-0.0504556,0.233679
2.88034,0.231241,-0.117725
2.85383,0.0891878,-0.0664395
2.83817,-0.0599464,-0.0826171
2.78423,-0.0588071,-0.556973
2.8669,0.0795792,0
2.8169,-0.19747,-0.0328744
2.81306,0.0780849,-0.437816
2.81267,-0.059408,-0.358097
2.89543,0.222283,0.0168778
2.84732,-0.0601397,-0.0165523
2.79297,-0.195793,-0.261359
2.82089,-0.19775,0.032921
2.84795,0.0790532,-0.199224
2.82198,-0.0596045,-0.230424
2.89027,0.221887,0.0843626
2.87761,0.220915,-0.184965
2.80037,-0.196312,-0.163487
2.886,0.0801094,0.168138
2.853,-0.0602596,0.11626
2.8558,0.0792713,-0.133079
2.83148,-0.0598052,-0.148425
2.90109,0.0805283,0.356346
2.85387,-0.060278,0.233028
2.87316,0.220573,-0.1174
2.86212,0.0794467,-0.0666256
2.88782,0.211561,-0.0505422
2.83394,-0.069755,-0.0825008
2.78793,-0.0686223,-0.557758
2.87116,0.0696681,0
2.81619,-0.207302,-0.0328744
2.80937,0.0681688,-0.437201
2.80848,-0.0691283,-0.357592
2.88023,0.211006,0.0167848
2.79227,-0.205542,-0.261359
2.87837,0.0698433,0.0669978
2.82018,-0.207596,0.032921
2.84422,0.0690144,-0.198945
2.82574,-0.0695531,-0.23075
2.89102,0.211796,0.0843626
2.8467,-0.0700691,0.0497045
2.8704,0.210286,-0.184454
2.7917,-0.2055,-0.163022
2.87827,0.0698409,0.167673
2.85676,-0.0703167,0.116423
2.90135,0.0704008,0.356346
2.85763,-0.0703379,0.233353
2.86992,0.21025,-0.117237
2.85839,0.0693582,-0.0665326
2.88455,0.201202,-0.0504724
2.79159,-0.0784638,-0.558542
2.81944,-0.217439,-0.032921
2.81354,0.058444,-0.437816
2.80822,-0.0789313,-0.357592
2.88494,0.201229,0.0168081
2.83101,0.0588069,-0.305012
2.78757,-0.214981,-0.260987
2.81944,-0.217439,0.032921
2.84045,0.059003,-0.198666
2.82548,-0.0794164,-0.23075
2.89175,0.201703,0.0843626
2.8751,0.200542,-0.184709
2.8785,0.0597934,0.167673
2.85251,-0.080176,0.11626
2.85629,0.0593319,-0.133079
2.827,-0.0794591,-0.148215
2.90555,0.0603552,0.356833
2.86135,-0.0804245,0.233679
2.87463,0.200509,-0.1174
2.85061,0.0592141,-0.0663465
2.88524,0.191131,-0.0504724
2.82939,-0.0894114,-0.0823844
2.78738,-0.0880839,-0.557758
2.81866,-0.227279,-0.032921
2.80977,0.0485543,-0.437201
2.80397,-0.088608,-0.357087
2.88164,0.190893,0.0167848
2.83517,0.0489932,-0.305441
2.78283,-0.22439,-0.260615
2.87079,0.0496087,0.0668117
2.82265,-0.227601,0.0329675
2.84064,0.0490876,-0.198666
2.81722,-0.0890268,-0.230099
2.89243,0.191608,0.0843626
2.8718,0.190241,-0.184454
2.87071,0.0496072,0.167208
2.84422,-0.0898801,0.115934
2.85248,0.0492922,-0.132893
2.82272,-0.0892005,-0.148006
2.90177,0.050144,0.356346
2.86105,-0.090412,0.233679
2.87531,0.190474,-0.1174
2.8508,0.0492632,-0.0663465
2.88186,0.181311,-0.0504026
2.82908,-0.0987935,-0.0823844
2.77531,-0.096916,-0.555404
2.86372,0.0399877,0
2.81391,-0.23629,-0.0328744
2.80597,0.0391813,-0.436586
2.80366,-0.0979058,-0.357087
2.88225,0.181336,0.0167848
2.83532,0.0395911,-0.305441
2.78207,-0.233617,-0.260615
2.87094,0.0400885,0.0668117
2.80992,-0.235956,0.0328279
2.8368,0.0396117,-0.198387
2.82089,-0.0985077,-0.230424
2.89305,0.182015,0.0843626
2.86445,0.180216,-0.183942
2.79342,-0.23457,-0.163254
2.88283,0.0402546,0.167906
2.8479,-0.0994509,0.116097
2.84863,0.039777,-0.132707
2.81841,-0.0984211,-0.147797
2.89398,0.0404103,0.355371
2.86073,-0.099899,0.233679
2.87193,0.180687,-0.117237
2.84695,0.0397535,-0.0662534
2.82872,-0.108668,-0.0823844
2.77496,-0.106603,-0.555404
2.85984,0.0299493,0
2.80908,-0.245763,-0.0328279
2.8033,-0.107692,-0.357087
2.88287,0.171274,0.0167848
2.82749,0.0296105,-0.304584
2.78521,-0.243674,-0.260987
2.87107,0.0300668,0.0668117
2.81306,-0.246111,0.0328744
2.84091,0.029751,-0.198666
2.81256,-0.108048,-0.229773
2.86904,0.170453,-0.184198
2.79258,-0.244319,-0.163254
2.87896,0.0301495,0.167673
2.84354,-0.109238,0.115934
2.84875,0.0298332,-0.132707
2.81805,-0.108259,-0.147797
2.89411,0.0303081,0.355371
2.8524,-0.109578,0.233028
2.86856,0.170424,-0.117074
2.89412,-0.111181,0.528062
2.84707,0.0298156,-0.0662534
2.83229,-0.119203,-0.0825008
2.77847,-0.116938,-0.556189
2.86393,0.0194945,0
2.80816,-0.256057,-0.0328279
2.80222,0.0190744,-0.435971
2.79495,-0.117632,-0.356076
2.87549,0.160261,0.0167383
2.83744,-0.11942,-0.0165058
2.83155,0.0192741,-0.305012
2.78429,-0.253881,-0.260987
2.81613,-0.256783,0.032921
2.841,0.0193383,-0.198666
2.81613,-0.118523,-0.230099
2.8863,0.160864,0.0841298
2.84505,-0.11974,0.0497045
2.86566,0.159714,-0.183942
2.79167,-0.254553,-0.163254
2.87906,0.0195974,0.167673
2.84312,-0.119659,0.115934
2.84485,0.0193646,-0.132521
2.82163,-0.118755,-0.148006
2.8942,0.0197005,0.355371
2.848,-0.119864,0.232702
2.86517,0.159686,-0.116911
2.84716,0.0193803,-0.0662534
2.87564,0.150203,-0.0502629
2.82387,-0.128725,-0.082268
2.77412,-0.126457,-0.555404
2.85998,0.00948411,0
2.81123,-0.266234,-0.0328744
2.80623,0.00930584,-0.436586
2.79453,-0.127387,-0.356076
2.87603,0.150223,0.0167383
2.83701,-0.129324,-0.0165058
2.82365,0.00936362,-0.304156
2.78339,-0.263598,-0.260987
2.81521,-0.266612,0.032921
2.83307,0.00939484,-0.198108
2.8157,-0.128353,-0.230099
2.88285,0.150579,0.0840135
2.84461,-0.129671,0.0497045
2.85823,0.149293,-0.18343
2.87112,0.00952103,0.167208
2.84668,-0.129765,0.116097
2.8449,0.00943408,-0.132521
2.82119,-0.128603,-0.148006
2.89425,0.00959773,0.355371
2.85154,-0.129987,0.233028
2.86571,0.149684,-0.116911
2.83922,0.00941524,-0.0660673
2.87612,0.140666,-0.0502629
2.81544,-0.137698,-0.0820353
2.77369,-0.135656,-0.555404
2.86,-0,0
2.79805,-0.136848,-0.356581
2.87651,0.140685,0.0167383
2.83656,-0.138731,-0.0165058
2.81969,-0,-0.303727
2.77457,-0.272049,-0.260243
2.86322,-0,0.0666256
2.81431,-0.275946,0.032921
2.83308,-0,-0.198108
2.80729,-0.1373,-0.229448
2.87934,0.140823,0.0838971
2.84017,-0.138908,0.0496346
2.86315,-0,0.166743
2.83825,-0.138814,0.115772
2.84492,-0,-0.132521
2.81277,-0.137568,-0.147587
2.89426,-0,0.355371
2.8511,-0.139442,0.233028
2.86619,0.14018,-0.116911
2.83923,-0,-0.0660673
2.87662,0.130123,-0.0502629
2.81492,-0.148016,-0.0820353
2.76926,-0.145615,-0.55462
2.85198,-0.0104531,0
2.8093,-0.285854,-0.0328744
2.79832,-0.0102564,-0.435356
2.79357,-0.146894,-0.356076
2.87301,0.12996,0.0167151
2.82365,-0.0103493,-0.304156
2.78148,-0.283023,-0.260987
2.86321,-0.0104942,0.0666256
2.80532,-0.285449,0.0328279
2.82508,-0.0103545,-0.19755
2.88383,0.13045,0.0840135
2.83964,-0.149316,0.0496346
2.86319,0.129516,-0.183686
2.7809,-0.282964,-0.162789
2.87112,-0.0105232,0.167208
2.83772,-0.149215,0.115772
2.8409,-0.0104125,-0.132335
2.82023,-0.148295,-0.148006
2.89028,-0.0105935,0.354884
2.85057,-0.149891,0.233028
2.8587,0.129313,-0.116586
2.83921,-0.0104063,-0.0660673
2.81438,-0.157841,-0.0820353
2.76481,-0.155061,-0.553835
2.85593,-0.0204369,0
2.80431,-0.29524,-0.0328279
2.79826,-0.0200243,-0.435356
2.797,-0.156866,-0.356581
2.86945,0.119764,0.0166918
2.8315,-0.158801,-0.0164826
2.82359,-0.0202056,-0.304156
2.77256,-0.291897,-0.260243
2.86315,-0.0204886,0.0666256
2.80829,-0.295658,0.0328744
2.82902,-0.0202444,-0.197829
2.79828,-0.156938,-0.228797
2.85964,0.119354,-0.18343
2.7799,-0.29267,-0.162789
2.87106,-0.0205452,0.167208
2.83718,-0.15912,0.115772
2.84085,-0.020329,-0.132335
2.81172,-0.157692,-0.147587
2.89022,-0.0206823,0.354884
2.84206,-0.159394,0.232377
2.85514,0.119167,-0.116423
2.84316,-0.0203456,-0.0661604
2.7682,-0.164461,-0.55462
2.80332,-0.304538,-0.0328279
2.79423,-0.0292622,-0.434741
2.78854,-0.16567,-0.355571
2.86584,0.110094,0.0166686
2.82297,-0.167716,-0.0164361
2.81953,-0.0295272,-0.303727
2.77553,-0.301519,-0.260615
2.80332,-0.304538,0.0328279
2.82894,-0.0296256,-0.197829
2.8057,-0.166689,-0.229448
2.87666,0.11051,0.0837807
2.83058,-0.168167,0.049495
2.85204,0.109564,-0.182919
2.77891,-0.301887,-0.162789
2.86699,-0.0300241,0.166975
2.84063,-0.168765,0.115934
2.84076,-0.0297495,-0.132335
2.81517,-0.167252,-0.147797
2.84152,-0.168817,0.232377
2.85952,0.109852,-0.116586
2.83908,-0.0297318,-0.0660673
2.86582,0.100077,-0.0500535
2.81324,-0.176994,-0.0820353
2.7637,-0.173877,-0.553835
2.80224,-0.314321,-0.0328279
2.78399,-0.175154,-0.355066
2.8662,0.10009,0.0166686
2.82636,-0.17782,-0.0164593
2.81941,-0.039369,-0.303727
2.77446,-0.311206,-0.260615
2.80224,-0.314321,0.0328279
2.82483,-0.0394446,-0.19755
2.8051,-0.176482,-0.229448
2.87303,0.100328,0.0836644
2.83396,-0.178298,0.0495648
2.85241,0.0996082,-0.182919
2.85888,-0.03992,0.16651
2.83604,-0.178428,0.115772
2.81457,-0.177077,-0.147797
2.84489,-0.178985,0.232702
2.85988,0.0998693,-0.116586
2.84295,-0.0396977,-0.0661604
2.86615,0.0900724,-0.0500535
2.80862,-0.186548,-0.0819189
2.76307,-0.183523,-0.553835
2.85157,-0.0497743,0
2.79396,-0.0487687,-0.434741
2.78336,-0.184871,-0.355066
2.86654,0.0900846,0.0166686
2.82174,-0.187419,-0.0164361
2.81528,-0.0491409,-0.303299
2.76545,-0.319973,-0.259872
2.85479,-0.0498306,0.0664395
2.80509,-0.32456,0.0328744
2.82467,-0.0493048,-0.19755
2.80447,-0.186273,-0.229448
2.87336,0.0902991,0.0836644
2.83332,-0.188189,0.0495648
2.84875,0.0895255,-0.182663
2.77277,-0.320821,-0.162557
2.86271,-0.0499688,0.166743
2.83141,-0.188062,0.115609
2.83649,-0.0495111,-0.132148
2.80994,-0.186636,-0.147587
2.84425,-0.188915,0.232702
2.85222,0.0896348,-0.11626
2.8308,-0.0494118,-0.0658812
2.86645,0.0800671,-0.0500535
2.80795,-0.196351,-0.0819189
2.84338,-0.0595602,0
2.78982,-0.0584384,-0.434126
2.7827,-0.194585,-0.355066
2.87083,0.0801896,0.0166918
2.82505,-0.197547,-0.0164593
2.81509,-0.0589678,-0.303299
2.76431,-0.329624,-0.259872
2.79203,-0.332929,0.0327347
2.8165,-0.0589973,-0.196992
2.86967,0.080157,0.083548
2.85303,0.0796924,-0.182919
2.86252,-0.0599613,0.166743
2.82675,-0.197665,0.115446
2.83231,-0.0593284,-0.131962
2.80131,-0.195886,-0.147169
2.88172,-0.0603635,0.353909
2.84357,-0.198842,0.232702
2.85652,0.0797897,-0.116423
2.82661,-0.0592091,-0.0657882
2.81124,-0.206444,-0.0820353
2.75781,-0.202521,-0.553051
2.78688,-0.342186,-0.0326882
2.7896,-0.0681763,-0.434126
2.78596,-0.204588,-0.355571
2.8631,0.0699726,0.0166453
2.82036,-0.207114,-0.0164361
2.8109,-0.0686968,-0.30287
2.76315,-0.339272,-0.259872
2.85437,-0.0697594,0.0664395
2.79879,-0.343648,0.0328279
2.81628,-0.0688284,-0.196992
2.79913,-0.205555,-0.229122
2.86593,0.0700418,0.0834316
2.8493,0.0696354,-0.182663
2.77443,-0.340657,-0.162789
2.8583,-0.0698554,0.16651
2.82604,-0.207531,0.115446
2.83208,-0.0692146,-0.131962
2.8006,-0.205664,-0.147169
2.88149,-0.0704222,0.353909
2.83491,-0.208183,0.232052
2.84879,0.0696228,-0.116097
2.82639,-0.0690755,-0.0657882
2.80253,-0.215643,-0.0818026
2.84689,-0.0795208,0
2.79361,-0.352914,-0.0327813
2.78934,-0.0779134,-0.434126
2.77732,-0.213703,-0.354561
2.85932,0.0598943,0.0166221
2.76195,-0.348915,-0.259872
2.79361,-0.352914,0.0327813
2.82799,-0.0789929,-0.197829
2.79839,-0.215325,-0.229122
2.86216,0.0599537,0.0833153
2.82721,-0.217542,0.049495
2.84155,0.0595219,-0.182151
2.76926,-0.349839,-0.162557
2.86203,-0.0799438,0.166743
2.82928,-0.217701,0.115609
2.83182,-0.0791,-0.131962
2.80385,-0.215745,-0.147378
2.83417,-0.218077,0.232052
2.84502,0.0595946,-0.115934
2.83013,-0.0790527,-0.0658812
2.85513,0.0498365,-0.0498441
2.80574,-0.225745,-0.0819189
2.75633,-0.221769,-0.553051
2.78906,-0.0876496,-0.434126
2.77655,-0.223396,-0.354561
2.85952,0.049913,0.0166221
2.81884,-0.226799,-0.0164361
2.8024,-0.0880689,-0.302014
2.76861,-0.35958,-0.260615
2.79632,-0.363179,0.0328279
2.81972,-0.0886132,-0.197271
2.79762,-0.225091,-0.229122
2.86635,0.0500323,0.0834316
2.84174,0.0496027,-0.182151
2.76802,-0.359503,-0.162557
2.85774,-0.0898082,0.16651
2.82851,-0.227576,0.115609
2.83153,-0.0889844,-0.131962
2.80308,-0.225531,-0.147378
2.83736,-0.228289,0.232377
2.84521,0.0496633,-0.115934
2.87516,-0.23133,0.525909
2.82184,-0.08868,-0.0656951
2.85927,0.0409238,-0.0499139
2.80502,-0.234558,-0.0819189
2.75171,-0.2301,-0.552266
2.79517,-0.371962,-0.0328279
2.78877,-0.0964112,-0.434126
2.77188,-0.231787,-0.354056
2.85566,0.0408721,0.0165988
2.81812,-0.235653,-0.0164361
2.80608,-0.0970098,-0.302442
2.76352,-0.36775,-0.260243
2.79517,-0.371962,0.0328279
2.81943,-0.0974712,-0.197271
2.7969,-0.233879,-0.229122
2.87049,0.0410844,0.083548
2.84188,0.0406749,-0.182151
2.85346,-0.0986477,0.166278
2.82379,-0.236128,0.115446
2.82325,-0.0976034,-0.13159
2.80236,-0.234336,-0.147378
2.8406,-0.237534,0.232702
2.84934,0.0407818,-0.116097
2.82555,-0.0976828,-0.0657882
2.8002,-0.244001,-0.0818026
2.84194,-0.108183,0
2.78989,-0.381175,-0.0327813
2.77501,-0.241806,-0.354561
2.85578,0.0309038,0.0165988
2.81728,-0.245489,-0.0164361
2.80175,-0.106653,-0.302014
2.75827,-0.376855,-0.259872
2.78989,-0.381175,0.0327813
2.81109,-0.107009,-0.196713
2.79607,-0.243641,-0.229122
2.86662,0.031021,0.0834316
2.82486,-0.24615,0.049495
2.84599,0.0307978,-0.182407
2.76558,-0.377854,-0.162557
2.85709,-0.108759,0.16651
2.82295,-0.245983,0.115446
2.82689,-0.10761,-0.131776
2.79755,-0.24377,-0.147169
2.8763,-0.109491,0.353421
2.83181,-0.246756,0.232052
2.84547,0.0307922,-0.115934
2.82519,-0.107545,-0.0657882
2.80331,-0.254135,-0.0819189
2.74613,-0.248951,-0.551482
2.78458,-0.390356,-0.0327347
2.78013,-0.11555,-0.432897
2.77415,-0.251491,-0.354561
2.85588,0.020935,0.0165988
2.80534,-0.116597,-0.302442
2.76088,-0.387034,-0.260243
2.79646,-0.392022,0.0328744
2.81469,-0.116986,-0.196992
2.77932,-0.25196,-0.227821
2.85871,0.0209558,0.0831989
2.82399,-0.256009,0.049495
2.84209,0.020834,-0.182151
2.76424,-0.387505,-0.162557
2.84871,-0.1184,0.166045
2.82208,-0.255836,0.115446
2.82649,-0.117477,-0.131776
2.80066,-0.253894,-0.147378
2.8759,-0.11953,0.353421
2.82696,-0.256279,0.231726
2.83357,0.0207716,-0.115446
2.82879,-0.117572,-0.0658812
2.8063,-0.265273,-0.0820353
2.74515,-0.259494,-0.551482
2.7791,-0.400475,-0.0326882
2.77966,-0.126224,-0.432897
2.76921,-0.261768,-0.354056
2.84793,0.00994122,0.0165523
2.80487,-0.127368,-0.302442
2.76332,-0.3982,-0.260615
2.79098,-0.402186,0.0328279
2.81422,-0.127793,-0.196992
2.78627,-0.26338,-0.228471
2.85078,0.00995114,0.0829662
2.819,-0.266474,0.0494252
2.83417,0.00989317,-0.181639
2.85621,-0.1297,0.16651
2.82107,-0.26667,0.115446
2.82602,-0.128329,-0.131776
2.79171,-0.263894,-0.146959
2.82993,-0.267507,0.232052
2.83763,0.00990525,-0.115609
2.82432,-0.128252,-0.0657882
2.85157,0.000995388,-0.0497743
2.80545,-0.274088,-0.0820353
2.74433,-0.268116,-0.551482
2.83666,-0.137743,0
2.7897,-0.410952,-0.0328279
2.7832,-0.135147,-0.433511
2.76838,-0.270466,-0.354056
2.85195,0.000995523,0.0165756
2.81455,-0.274977,-0.0164361
2.79651,-0.135794,-0.301585
2.75811,-0.406299,-0.260243
2.79366,-0.411535,0.0328744
2.81381,-0.136634,-0.196992
2.79336,-0.272907,-0.229122
2.85479,0.000996514,0.0830826
2.83419,0.000989321,-0.181639
2.84781,-0.138285,0.166045
2.82022,-0.275531,0.115446
2.8256,-0.137206,-0.131776
2.79086,-0.272663,-0.146959
2.87103,-0.139412,0.352934
2.82511,-0.276009,0.231726
2.83365,0.000989134,-0.115446
2.81991,-0.13693,-0.0656951
2.84755,-0.00894588,-0.0497045
2.79254,-0.282671,-0.0816862
2.83616,-0.147644,0
2.78825,-0.420688,-0.0328279
2.77876,-0.144656,-0.432897
2.76742,-0.280128,-0.354056
2.85194,-0.00895966,0.0165756
2.8096,-0.284397,-0.0164128
2.79602,-0.145554,-0.301585
2.7488,-0.414736,-0.2595
2.83939,-0.147812,0.0661604
2.78825,-0.420688,0.0328279
2.81331,-0.146455,-0.196992
2.78843,-0.282255,-0.228797
2.85878,-0.00898114,0.0831989
2.81717,-0.285165,0.0494252
2.83417,-0.00890385,-0.181639
2.84731,-0.148225,0.166045
2.81527,-0.284972,0.115283
2.82112,-0.146861,-0.13159
2.79387,-0.282806,-0.147169
2.83206,-0.286671,0.232377
2.83763,-0.00891472,-0.115609
2.81942,-0.146773,-0.0656951
2.8475,-0.0188857,-0.0497045
2.79551,-0.292834,-0.0818026
2.78281,-0.429808,-0.0327813
2.77824,-0.154355,-0.432897
2.77431,-0.290613,-0.355066
2.84789,-0.0188882,0.0165523
2.80859,-0.294203,-0.0164128
2.79549,-0.155313,-0.301585
2.75127,-0.424937,-0.259872
2.83885,-0.157722,0.0661604
2.79072,-0.431029,0.0328744
2.8088,-0.156053,-0.196713
2.78743,-0.291987,-0.228797
2.85873,-0.0189601,0.0831989
2.83412,-0.0187969,-0.181639
2.84279,-0.157941,0.165813
2.81823,-0.295213,0.115446
2.8166,-0.156486,-0.131404
2.78492,-0.291724,-0.14675
2.82708,-0.29614,0.232052
2.83359,-0.0187934,-0.115446
2.8149,-0.156391,-0.0656021
2.84742,-0.0288252,-0.0497045
2.79448,-0.30259,-0.0818026
2.77734,-0.438894,-0.0327347
2.76539,-0.299441,-0.354056
2.84381,-0.0287886,0.0165291
2.80754,-0.304005,-0.0164128
2.7989,-0.165305,-0.302014
2.74584,-0.433916,-0.2595
2.83828,-0.167631,0.0661604
2.7813,-0.439519,0.0327813
2.80425,-0.165621,-0.196434
2.78243,-0.301285,-0.228471
2.84665,-0.0288174,0.0828498
2.81511,-0.304825,0.0494252
2.83005,-0.0286493,-0.181384
2.75706,-0.435689,-0.162557
2.81718,-0.305049,0.115446
2.78786,-0.301873,-0.146959
2.82206,-0.305577,0.231726
2.82951,-0.0286438,-0.115283
2.81433,-0.166216,-0.0656021
2.8473,-0.0387643,-0.0497045
2.7934,-0.312343,-0.0818026
2.7758,-0.448587,-0.0327347
2.76039,-0.308651,-0.353551
2.84369,-0.0387151,0.0165291
2.80646,-0.313803,-0.0164128
2.79037,-0.174577,-0.301157
2.74824,-0.444134,-0.259872
2.78369,-0.449863,0.0328279
2.80366,-0.175409,-0.196434
2.7774,-0.310553,-0.228146
2.84653,-0.0387538,0.0828498
2.81403,-0.31465,0.0494252
2.82594,-0.0384735,-0.181128
2.75946,-0.445947,-0.162789
2.84162,-0.177784,0.165813
2.80816,-0.313993,0.11512
2.81942,-0.176395,-0.13159
2.78282,-0.311159,-0.14675
2.82098,-0.315426,0.231726
2.82939,-0.0385205,-0.115283
2.81374,-0.176039,-0.0656021
2.78832,-0.321634,-0.0816862
2.77816,-0.458925,-0.0327813
2.75535,-0.31783,-0.353046
2.83554,-0.0485044,0.0164826
2.80138,-0.323139,-0.0163896
2.79371,-0.184579,-0.301585
2.7506,-0.454373,-0.260243
2.78211,-0.459577,0.0328279
2.80303,-0.185194,-0.196434
2.78421,-0.32116,-0.228797
2.85038,-0.0487582,0.0829662
2.81292,-0.324471,0.0494252
2.8218,-0.0482694,-0.180872
2.84098,-0.187702,0.165813
2.81101,-0.324251,0.115283
2.78568,-0.321329,-0.146959
2.82382,-0.325728,0.232052
2.82924,-0.0483967,-0.115283
2.80911,-0.185596,-0.065509
2.84296,-0.0585588,-0.0496346
2.78718,-0.331365,-0.0816862
2.77654,-0.46862,-0.0327813
2.77187,-0.192856,-0.432282
2.76211,-0.328383,-0.354056
2.84735,-0.0586491,0.0165523
2.8042,-0.333388,-0.0164128
2.78908,-0.194053,-0.301157
2.78048,-0.469285,0.0328279
2.80635,-0.195255,-0.196713
2.78308,-0.330877,-0.228797
2.85419,-0.0587899,0.0830826
2.82161,-0.058119,-0.180872
2.83633,-0.19734,0.16558
2.80986,-0.334061,0.115283
2.81414,-0.195797,-0.131404
2.78454,-0.331051,-0.146959
2.82662,-0.336054,0.232377
2.82905,-0.0582722,-0.115283
2.81244,-0.195678,-0.0656021
2.84274,-0.0684822,-0.0496346
2.78601,-0.341092,-0.0816862
2.82447,-0.206425,0
2.76724,-0.202242,-0.431667
2.757,-0.337541,-0.353551
2.84313,-0.0684915,0.0165291
2.79905,-0.342689,-0.0163896
2.78839,-0.203788,-0.301157
2.74344,-0.472888,-0.259872
2.77489,-0.478309,0.0327813
2.79371,-0.204177,-0.195876
2.77795,-0.340105,-0.228471
2.84997,-0.0686563,0.0829662
2.82538,-0.068064,-0.181128
2.75464,-0.474819,-0.162789
2.84359,-0.207822,0.166045
2.80471,-0.343382,0.11512
2.81344,-0.205619,-0.131404
2.7794,-0.340283,-0.14675
2.81752,-0.34495,0.231726
2.82484,-0.0680509,-0.11512
2.80775,-0.205203,-0.065509
2.8385,-0.0777991,-0.0495648
2.77693,-0.349331,-0.0814535
2.81579,-0.21518,0
2.76935,-0.486816,-0.0327347
2.75587,-0.346681,-0.353551
2.83889,-0.0778097,0.0165058
2.79166,-0.213337,-0.301585
2.74186,-0.481983,-0.259872
2.77329,-0.487508,0.0327813
2.797,-0.213744,-0.196155
2.77285,-0.348817,-0.228146
2.84573,-0.0779972,0.0828498
2.82115,-0.0773236,-0.180872
2.83492,-0.216642,0.16558
2.80753,-0.35318,0.115283
2.81274,-0.214947,-0.131404
2.78222,-0.349997,-0.146959
2.81636,-0.354291,0.231726
2.8206,-0.0773085,-0.114957
2.81104,-0.214817,-0.0656021
2.83821,-0.0877069,-0.0495648
2.78759,-0.36056,-0.0818026
2.823,-0.225645,0
2.76763,-0.496479,-0.0327347
2.75071,-0.35579,-0.353046
2.8346,-0.0875952,0.0164826
2.80062,-0.362246,-0.0164128
2.78297,-0.222446,-0.300729
2.74408,-0.492254,-0.260243
2.7755,-0.497892,0.0328279
2.79623,-0.223506,-0.196155
2.77161,-0.358494,-0.228146
2.84144,-0.0878066,0.0827335
2.79628,-0.361684,0.0492158
2.81687,-0.0870475,-0.180616
2.74741,-0.492853,-0.162557
2.83414,-0.226536,0.16558
2.81024,-0.36349,0.115446
2.77702,-0.359194,-0.14675
2.81511,-0.36412,0.231726
2.82031,-0.0871537,-0.114957
2.80629,-0.22431,-0.065509
2.83789,-0.0976136,-0.0495648
2.78235,-0.369762,-0.0816862
2.76982,-0.506857,-0.0327813
2.76107,-0.230398,-0.431052
2.74945,-0.36539,-0.353046
2.83028,-0.0973518,0.0164593
2.79538,-0.371493,-0.0163896
2.78218,-0.232159,-0.300729
2.77375,-0.507577,0.0328279
2.78748,-0.232602,-0.195597
2.76639,-0.367642,-0.227821
2.84112,-0.0977246,0.0827335
2.80293,-0.372497,0.0493554
2.81256,-0.0967425,-0.18036
2.82936,-0.236096,0.165347
2.80499,-0.372771,0.115283
2.78367,-0.369938,-0.147169
2.81382,-0.373944,0.231726
2.81999,-0.096998,-0.114957
2.79752,-0.233439,-0.0653229
2.77708,-0.378931,-0.0815699
2.77196,-0.517256,-0.0328279
2.76025,-0.240035,-0.431052
2.75209,-0.375521,-0.353551
2.83792,-0.107534,0.0165058
2.77343,-0.24118,-0.299872
2.82059,-0.245281,0.0658812
2.76803,-0.516523,0.0327813
2.79063,-0.242676,-0.195876
2.76904,-0.377835,-0.228146
2.84076,-0.107641,0.0827335
2.8162,-0.106711,-0.180616
2.83249,-0.246317,0.16558
2.79575,-0.381479,0.114957
2.80237,-0.243697,-0.131032
2.77445,-0.378572,-0.14675
2.8125,-0.383764,0.231726
2.82363,-0.106992,-0.11512
2.80067,-0.243549,-0.0654159
2.77574,-0.388623,-0.0815699
2.72687,-0.381781,-0.550697
2.76621,-0.526182,-0.0327813
2.74683,-0.384575,-0.353046
2.83752,-0.117439,0.0165058
2.78049,-0.251577,-0.300729
2.73877,-0.520963,-0.260243
2.8237,-0.255486,0.0659743
2.76621,-0.526182,0.0327813
2.78976,-0.252416,-0.195876
2.76771,-0.387498,-0.228146
2.84036,-0.117557,0.0827335
2.82378,-0.116871,-0.181128
2.7421,-0.521596,-0.162557
2.83162,-0.256202,0.16558
2.79836,-0.39179,0.11512
2.80549,-0.253838,-0.131218
2.77311,-0.388255,-0.14675
2.81114,-0.393579,0.231726
2.81525,-0.116517,-0.114795
2.80379,-0.253684,-0.065509
2.77437,-0.39831,-0.0815699
2.76043,-0.535073,-0.0327347
2.8331,-0.127164,0.0164826
2.79133,-0.400745,-0.0163896
2.7796,-0.261281,-0.300729
2.76828,-0.536595,0.0328279
2.78887,-0.262152,-0.195876
2.75845,-0.396024,-0.227495
2.83594,-0.127291,0.0826171
2.81538,-0.126369,-0.180616
2.74027,-0.531165,-0.162557
2.82673,-0.265711,0.165347
2.80093,-0.402124,0.115283
2.80458,-0.26363,-0.131218
2.77569,-0.3985,-0.146959
2.8058,-0.402823,0.231401
2.81483,-0.126344,-0.114795
2.80686,-0.263844,-0.0656021
2.769,-0.40741,-0.0814535
2.81465,-0.274491,0
2.76247,-0.545481,-0.0327813
2.74408,-0.403742,-0.353046
2.82465,-0.136666,0.0164361
2.77867,-0.270982,-0.300729
2.73116,-0.539299,-0.259872
2.77032,-0.54703,0.0328744
2.79191,-0.272273,-0.196155
2.76494,-0.406811,-0.228146
2.83149,-0.136997,0.0825008
2.7935,-0.411013,0.0492856
2.80695,-0.13581,-0.180104
2.82578,-0.275577,0.165347
2.79556,-0.411317,0.11512
2.80365,-0.273418,-0.131218
2.77033,-0.407605,-0.14675
2.80832,-0.413195,0.231726
2.81437,-0.136169,-0.114795
2.80593,-0.27364,-0.0656021
2.83176,-0.14692,-0.049495
2.77547,-0.418264,-0.0816862
2.81367,-0.284314,0
2.75663,-0.554331,-0.0327347
2.83214,-0.146939,0.0164826
2.78451,-0.419627,-0.0163664
2.76979,-0.27988,-0.299872
2.73317,-0.549614,-0.260243
2.76839,-0.556697,0.0328744
2.783,-0.281215,-0.195597
2.76744,-0.417054,-0.228471
2.83499,-0.147087,0.0826171
2.796,-0.421358,0.0493554
2.81045,-0.145814,-0.18036
2.73649,-0.550282,-0.162557
2.8248,-0.285439,0.165347
2.80201,-0.422264,0.115446
2.77284,-0.417868,-0.146959
2.80686,-0.422995,0.231726
2.80989,-0.145785,-0.114632
2.797,-0.282629,-0.0654159
2.82324,-0.156361,-0.0493554
2.76609,-0.426731,-0.0814535
2.75859,-0.564753,-0.0327813
2.75171,-0.28776,-0.430437
2.74119,-0.42289,-0.353046
2.82762,-0.156603,0.0164593
2.78303,-0.429344,-0.0163664
2.76484,-0.289133,-0.299443
2.76643,-0.566357,0.0328744
2.782,-0.290927,-0.195597
2.75809,-0.425496,-0.227821
2.83046,-0.156761,0.0825008
2.81391,-0.155844,-0.180616
2.81982,-0.294882,0.165115
2.79262,-0.430823,0.11512
2.79372,-0.292153,-0.130846
2.76742,-0.426935,-0.14675
2.80931,-0.433398,0.232052
2.81734,-0.156034,-0.114957
2.79599,-0.292391,-0.0654159
2.76459,-0.436384,-0.0814535
2.80764,-0.30352,0
2.76052,-0.575194,-0.0328279
2.75069,-0.297363,-0.430437
2.74362,-0.433074,-0.353551
2.83105,-0.166708,0.0164826
2.76777,-0.29921,-0.299872
2.72536,-0.567869,-0.259872
2.81483,-0.304298,0.0658812
2.75661,-0.574379,0.0327813
2.777,-0.300208,-0.195318
2.76052,-0.435743,-0.228146
2.8299,-0.16664,0.0825008
2.79299,-0.440867,0.0493554
2.80538,-0.165196,-0.180104
2.73649,-0.570188,-0.162789
2.82274,-0.305153,0.165347
2.7911,-0.440569,0.11512
2.79666,-0.302332,-0.131032
2.76197,-0.43597,-0.146541
2.80778,-0.443202,0.232052
2.80481,-0.165163,-0.114469
2.79495,-0.302149,-0.0654159
2.76305,-0.446031,-0.0814535
2.75458,-0.583997,-0.0327813
2.74209,-0.442649,-0.353551
2.82646,-0.17634,0.0164593
2.76671,-0.308869,-0.299872
2.75458,-0.583997,0.0327813
2.77593,-0.309899,-0.195318
2.75505,-0.444741,-0.227821
2.8293,-0.176517,0.0825008
2.80478,-0.174988,-0.180104
2.82563,-0.315447,0.16558
2.78954,-0.450309,0.11512
2.79161,-0.31165,-0.130846
2.76831,-0.446882,-0.146959
2.79834,-0.451729,0.231401
2.80821,-0.175201,-0.114632
2.80183,-0.31279,-0.0656021
2.82145,-0.185917,-0.0493554
2.76936,-0.456975,-0.0816862
2.75253,-0.593609,-0.0327813
2.74855,-0.316559,-0.430437
2.73661,-0.451571,-0.353046
2.81784,-0.185679,0.0164128
2.76956,-0.31898,-0.3003
2.72133,-0.586882,-0.259872
2.76035,-0.595296,0.0328744
2.7788,-0.320044,-0.195597
2.75348,-0.454355,-0.227821
2.82468,-0.186129,0.0823844
2.78984,-0.460355,0.0493554
2.80415,-0.184777,-0.180104
2.82054,-0.324852,0.165347
2.78795,-0.460043,0.11512
2.79448,-0.321849,-0.131032
2.7628,-0.455892,-0.14675
2.80068,-0.462144,0.231726
2.80359,-0.18474,-0.114469
2.79278,-0.321654,-0.0654159
2.81277,-0.195701,-0.0492158
2.77161,-0.467788,-0.0818026
2.75033,-0.603694,-0.0327813
2.73494,-0.461599,-0.353046
2.82113,-0.196283,0.0164361
2.76443,-0.328659,-0.299872
2.72305,-0.597706,-0.260243
2.75424,-0.604551,0.0328279
2.78157,-0.330698,-0.195876
2.75573,-0.465107,-0.228146
2.83195,-0.197036,0.0826171
2.78814,-0.470577,0.0493554
2.79549,-0.194499,-0.179593
2.81537,-0.334716,0.165115
2.79019,-0.470924,0.115283
2.75717,-0.46535,-0.146541
2.79897,-0.472406,0.231726
2.80289,-0.195014,-0.114469
2.78761,-0.331415,-0.0653229
2.82012,-0.205117,-0.0493554
2.75831,-0.474459,-0.0814535
2.75233,-0.613201,-0.0328279
2.75025,-0.33574,-0.431052
2.73348,-0.470188,-0.353046
2.81651,-0.204855,0.0164128
2.77914,-0.478043,-0.0163896
2.71728,-0.605392,-0.259872
2.81037,-0.343079,0.0658812
2.75623,-0.614071,0.0328744
2.77656,-0.338951,-0.195597
2.7464,-0.472411,-0.227495
2.81936,-0.205062,0.082268
2.7827,-0.478656,0.0492856
2.79885,-0.20357,-0.179849
2.81827,-0.344043,0.165347
2.78082,-0.478332,0.114957
2.78826,-0.340379,-0.130846
2.75963,-0.474687,-0.14675
2.79747,-0.481197,0.231726
2.80227,-0.203819,-0.114469
2.81141,-0.214352,-0.0492158
2.75663,-0.484085,-0.0814535
2.75407,-0.623688,-0.0328744
2.73182,-0.479727,-0.353046
2.81578,-0.214685,0.0164128
2.75824,-0.346491,-0.299443
2.71903,-0.615753,-0.260243
2.80916,-0.352887,0.0658812
2.75017,-0.622805,0.0328279
2.76744,-0.347646,-0.195039
2.74866,-0.482684,-0.227821
2.82261,-0.215206,0.0823844
2.79414,-0.213035,-0.179593
2.81705,-0.353878,0.165347
2.78307,-0.488727,0.11512
2.78309,-0.349612,-0.130659
2.75796,-0.484317,-0.14675
2.7997,-0.491648,0.232052
2.80154,-0.213599,-0.114469
2.78932,-0.350394,-0.0654159
2.7628,-0.495115,-0.0816862
2.80073,-0.361764,0
2.74798,-0.632401,-0.0328279
2.73403,-0.48996,-0.353551
2.819,-0.224831,0.0164361
2.7649,-0.357136,-0.3003
2.71686,-0.62524,-0.260243
2.80791,-0.36269,0.0658812
2.75578,-0.634195,0.032921
2.77017,-0.357815,-0.195318
2.74303,-0.491572,-0.227495
2.82184,-0.225057,0.0823844
2.78323,-0.498776,0.0493554
2.80134,-0.223422,-0.180104
2.72406,-0.626896,-0.162789
2.78528,-0.499144,0.115283
2.75232,-0.493236,-0.146541
2.79797,-0.501418,0.232052
2.79679,-0.223059,-0.114306
2.78808,-0.360129,-0.0654159
2.81782,-0.234638,-0.0493554
2.76105,-0.504756,-0.0816862
2.74965,-0.6429,-0.0328744
2.81421,-0.234338,0.0164128
2.7597,-0.366262,-0.299872
2.71854,-0.635626,-0.260615
2.74576,-0.641989,0.0328279
2.76494,-0.366958,-0.195039
2.74914,-0.502578,-0.228146
2.82104,-0.234906,0.0823844
2.78147,-0.508489,0.0493554
2.79259,-0.232537,-0.179593
2.72185,-0.636401,-0.162789
2.81451,-0.373536,0.165347
2.78352,-0.508863,0.115283
2.75451,-0.503559,-0.14675
2.7962,-0.511182,0.232052
2.79201,-0.232489,-0.114143
2.7868,-0.369859,-0.0654159
2.813,-0.244127,-0.0492856
2.76321,-0.515123,-0.0818026
2.79814,-0.381307,0
2.7435,-0.65157,-0.0328279
2.72665,-0.508308,-0.353046
2.81338,-0.24416,0.0164128
2.76826,-0.516066,-0.0163664
2.75446,-0.375355,-0.299443
2.75128,-0.653418,0.032921
2.77551,-0.378223,-0.195876
2.75129,-0.512902,-0.228471
2.8202,-0.244752,0.0823844
2.77968,-0.518195,0.0493554
2.79176,-0.242283,-0.179593
2.80528,-0.38228,0.164882
2.76059,-0.514635,-0.147169
2.79048,-0.520208,0.231726
2.79915,-0.242925,-0.114469
2.77361,-0.377965,-0.0651368
2.81213,-0.253944,-0.0492856
2.75353,-0.523273,-0.0815699
2.74509,-0.66208,-0.0328744
2.72485,-0.517823,-0.353046
2.80852,-0.253619,0.0163896
2.75313,-0.384968,-0.299443
2.75287,-0.663956,0.0329675
2.77022,-0.387357,-0.195597
2.74948,-0.522503,-0.228471
2.81933,-0.254595,0.0823844
2.77785,-0.527894,0.0493554
2.79089,-0.252027,-0.179593
2.80392,-0.39207,0.164882
2.77597,-0.527537,0.11512
2.78189,-0.388989,-0.130846
2.75485,-0.523522,-0.146959
2.79257,-0.53069,0.232052
2.7943,-0.252335,-0.114306
2.78019,-0.388751,-0.0653229
2.81122,-0.263759,-0.0492856
2.74777,-0.532121,-0.0814535
2.79541,-0.400833,0
2.74277,-0.671658,-0.0328744
2.73871,-0.392702,-0.430437
2.72303,-0.527331,-0.353046
2.8116,-0.263795,0.0164128
2.74784,-0.394011,-0.299015
2.70787,-0.663112,-0.260243
2.74277,-0.671658,0.0328744
2.74764,-0.532097,-0.228471
2.8224,-0.264808,0.0825008
2.776,-0.537588,0.0493554
2.79397,-0.26214,-0.179849
2.81044,-0.402989,0.165347
2.77804,-0.537984,0.115283
2.78052,-0.398697,-0.130846
2.74124,-0.530857,-0.146331
2.78678,-0.539677,0.231726
2.78943,-0.261714,-0.114143
2.77882,-0.398454,-0.0653229
2.75766,-0.544031,-0.0818026
2.79399,-0.410588,0
2.73652,-0.680263,-0.0328279
2.72507,-0.537601,-0.353551
2.81067,-0.273607,0.0164128
2.76663,-0.5458,-0.0163896
2.75038,-0.404179,-0.299443
2.74429,-0.682193,0.032921
2.7635,-0.406107,-0.195318
2.73795,-0.540142,-0.227821
2.80952,-0.273496,0.0821517
2.79304,-0.271892,-0.179849
2.80902,-0.412796,0.165347
2.77615,-0.547678,0.115283
2.74721,-0.541969,-0.14675
2.78879,-0.550173,0.232052
2.78137,-0.408733,-0.0654159
2.75182,-0.552866,-0.0816862
2.78463,-0.419148,0
2.73801,-0.69079,-0.0328744
2.80571,-0.283015,0.0163896
2.74895,-0.413777,-0.299443
2.73801,-0.69079,0.0328744
2.75812,-0.415157,-0.195039
2.73604,-0.549696,-0.227821
2.81651,-0.284104,0.0823844
2.77217,-0.556955,0.0493554
2.78413,-0.280838,-0.179337
2.71421,-0.684784,-0.163022
2.74138,-0.550768,-0.146541
2.78753,-0.281181,-0.114143
2.77597,-0.417844,-0.0653229
2.80831,-0.293183,-0.0492856
2.74988,-0.562468,-0.0816862
2.74333,-0.702327,-0.0329675
2.71736,-0.555817,-0.353046
2.80471,-0.292807,0.0163896
2.76667,-0.565903,-0.0164128
2.73558,-0.700343,0.0328744
2.75665,-0.424782,-0.195039
2.73411,-0.559243,-0.227821
2.81152,-0.293519,0.082268
2.77021,-0.566628,0.0493554
2.77916,-0.29014,-0.179081
2.80212,-0.431789,0.165115
2.77225,-0.567045,0.115283
2.77619,-0.427792,-0.130846
2.74727,-0.561935,-0.146959
2.78653,-0.29091,-0.114143
2.77054,-0.426922,-0.0652298
2.80329,-0.302555,-0.0492158
2.74398,-0.571249,-0.0815699
2.73296,-0.430902,-0.430437
2.79969,-0.302167,0.0163664
2.76468,-0.575557,-0.0164128
2.79273,-0.440327,0.0657882
2.73699,-0.710893,0.032921
2.75515,-0.434402,-0.195039
2.73214,-0.568783,-0.227821
2.81048,-0.303331,0.082268
2.77213,-0.577109,0.0494252
2.78607,-0.300696,-0.179593
2.80454,-0.442189,0.165347
2.77026,-0.576719,0.115283
