2.771462370153891,0.7672918084904228,-0.4844928220047635,1
2.835163360411872,0.7319835755008222,-0.5530166319054449,1
2.898864350669853,0.6966753425112215,-0.6215404418061262,1
2.962565340927834,0.661367109521621,-0.6900642517068075,1
3.026266331185815,0.6260588765320205,-0.7585880616074888,1
3.089967321443795,0.5907506435424199,-0.8271118715081701,1
3.153668311701777,0.5554424105528193,-0.8956356814088516,1
3.217369301959757,0.5201341775632189,-0.9641594913095329,1
3.281070292217738,0.4848259445736183,-1.032683301210214,1
3.344771282475719,0.4495177115840178,-1.101207111110895,1
3.4084722727337,0.4142094785944172,-1.169730921011577,1
2.71293074742432,0.6872914006840407,-0.4976831173561089,1
2.776631737682301,0.6519831676944401,-0.5662069272567902,1
2.840332727940282,0.6166749347048396,-0.6347307371574715,1
2.904033718198263,0.5813667017152391,-0.7032545470581529,1
2.967734708456244,0.5460584687256385,-0.7717783569588342,1
3.031435698714224,0.5107502357360379,-0.8403021668595155,1
3.095136688972205,0.4754420027464374,-0.9088259767601968,1
3.158837679230186,0.4401337697568368,-0.9773497866608782,1
3.222538669488167,0.4048255367672363,-1.04587359656156,1
3.286239659746148,0.3695173037776358,-1.114397406462241,1
3.349940650004128,0.3342090707880352,-1.182921216362922,1
2.654399124694749,0.6072909928776586,-0.5108734127074542,1
2.71810011495273,0.5719827598880581,-0.5793972226081355,1
2.781801105210711,0.5366745268984576,-0.6479210325088168,1
2.845502095468691,0.501366293908857,-0.7164448424094982,1
2.909203085726672,0.4660580609192565,-0.7849686523101795,1
2.972904075984653,0.4307498279296559,-0.8534924622108608,1
3.036605066242634,0.3954415949400554,-0.9220162721115422,1
3.100306056500615,0.3601333619504548,-0.9905400820122235,1
3.164007046758596,0.3248251289608542,-1.059063891912905,1
3.227708037016577,0.2895168959712537,-1.127587701813586,1
3.291409027274558,0.2542086629816531,-1.196111511714267,1
2.595867501965178,0.5272905850712766,-0.5240637080587995,1
2.659568492223158,0.4919823520816761,-0.5925875179594808,1
2.723269482481139,0.4566741190920756,-0.6611113278601622,1
2.78697047273912,0.4213658861024749,-0.7296351377608435,1
2.850671462997101,0.3860576531128744,-0.7981589476615248,1
2.914372453255082,0.3507494201232739,-0.8666827575622061,1
2.978073443513063,0.3154411871336733,-0.9352065674628876,1
3.041774433771044,0.2801329541440728,-1.003730377363569,1
3.105475424029025,0.2448247211544722,-1.07225418726425,1
3.169176414287005,0.2095164881648717,-1.140777997164931,1
3.232877404544987,0.1742082551752712,-1.209301807065613,1
2.537335879235607,0.4472901772648946,-0.5372540034101448,1
2.601036869493587,0.4119819442752941,-0.6057778133108261,1
2.664737859751568,0.3766737112856935,-0.6743016232115076,1
2.728438850009549,0.341365478296093,-0.7428254331121888,1
2.79213984026753,0.3060572453064925,-0.8113492430128701,1
2.855840830525511,0.2707490123168919,-0.8798730529135514,1
2.919541820783492,0.2354407793272913,-0.9483968628142329,1
2.983242811041473,0.2001325463376908,-1.016920672714914,1
3.046943801299454,0.1648243133480902,-1.085444482615596,1
3.110644791557434,0.1295160803584897,-1.153968292516277,1
3.174345781815415,0.09420784736888921,-1.222492102416958,1
2.478804256506035,0.3672897694585126,-0.5504442987614901,1
2.542505246764016,0.3319815364689121,-0.6189681086621714,1
2.606206237021997,0.2966733034793115,-0.6874919185628529,1
2.669907227279978,0.261365070489711,-0.7560157284635342,1
2.733608217537959,0.2260568375001104,-0.8245395383642155,1
2.79730920779594,0.1907486045105099,-0.8930633482648968,1
2.861010198053921,0.1554403715209093,-0.9615871581655782,1
2.924711188311901,0.1201321385313088,-1.030110968066259,1
2.988412178569882,0.08482390554170816,-1.098634777966941,1
3.052113168827863,0.04951567255210776,-1.167158587867622,1
3.115814159085844,0.01420743956250714,-1.235682397768303,1
2.420272633776464,0.2872893616521305,-0.5636345941128355,1
2.483973624034445,0.25198112866253,-0.6321584040135169,1
2.547674614292426,0.2166728956729295,-0.7006822139141982,1
2.611375604550407,0.181364662683329,-0.7692060238148796,1
2.675076594808388,0.1460564296937283,-0.8377298337155609,1
2.738777585066368,0.1107481967041278,-0.9062536436162422,1
2.802478575324349,0.07543996371452721,-0.9747774535169235,1
2.866179565582331,0.04013173072492671,-1.043301263417605,1
2.929880555840311,0.004823497735326088,-1.111825073318286,1
2.993581546098292,-0.03048473525427431,-1.180348883218967,1
3.057282536356273,-0.06579296824387493,-1.248872693119649,1
2.361741011046893,0.2072889538457485,-0.5768248894641808,1
2.425442001304874,0.171980720856148,-0.6453486993648622,1
2.489142991562855,0.1366724878665475,-0.7138725092655435,1
2.552843981820836,0.1013642548769469,-0.7823963191662248,1
2.616544972078817,0.06605602188734638,-0.8509201290669061,1
2.680245962336798,0.03074778889774588,-0.9194439389675874,1
2.743946952594778,-0.004560444091854743,-0.9879677488682689,1
2.807647942852759,-0.03986867708145536,-1.05649155876895,1
2.87134893311074,-0.07517691007105587,-1.125015368669631,1
2.935049923368721,-0.1104851430606564,-1.193539178570313,1
2.998750913626702,-0.145793376050257,-1.262062988470994,1
2.303209388317322,0.1272885460393666,-0.5900151848155262,1
2.366910378575303,0.09198031304976606,-0.6585389947162075,1
2.430611368833284,0.05667208006016544,-0.7270628046168888,1
2.494312359091265,0.02136384707056493,-0.7955866145175702,1
2.558013349349245,-0.01394438591903557,-0.8641104244182515,1
2.621714339607226,-0.04925261890863619,-0.9326342343189328,1
2.685415329865207,-0.0845608518982367,-1.001158044219614,1
2.749116320123188,-0.1198690848878372,-1.069681854120295,1
2.812817310381169,-0.1551773178774378,-1.138205664020977,1
2.87651830063915,-0.1904855508670383,-1.206729473921658,1
2.940219290897131,-0.2257937838566389,-1.275253283822339,1
2.244677765587751,0.0472881382329845,-0.6032054801668715,1
2.308378755845732,0.01197990524338399,-0.6717292900675528,1
2.372079746103712,-0.02332832774621663,-0.7402530999682341,1
2.435780736361693,-0.05863656073581713,-0.8087769098689155,1
2.499481726619674,-0.09394479372541764,-0.8773007197695968,1
2.563182716877655,-0.1292530267150183,-0.9458245296702781,1
2.626883707135636,-0.1645612597046188,-1.014348339570959,1
2.690584697393617,-0.1998694926942193,-1.082872149471641,1
2.754285687651598,-0.2351777256838199,-1.151395959372322,1
2.817986677909579,-0.2704859586734203,-1.219919769273003,1
2.881687668167559,-0.305794191663021,-1.288443579173685,1
2.18614614285818,-0.03271226957339746,-0.6163957755182168,1
2.249847133116161,-0.06802050256299796,-0.6849195854188981,1
2.313548123374142,-0.1033287355525985,-0.7534433953195795,1
2.377249113632122,-0.1386369685421991,-0.8219672052202608,1
2.440950103890103,-0.1739452015317996,-0.8904910151209421,1
2.504651094148084,-0.2092534345214002,-0.9590148250216234,1
2.568352084406065,-0.2445616675110008,-1.027538634922305,1
2.632053074664046,-0.2798699005006014,-1.096062444822986,1
2.695754064922026,-0.3151781334902018,-1.164586254723667,1
2.759455055180008,-0.3504863664798024,-1.233110064624348,1
2.823156045437988,-0.385794599469403,-1.30163387452503,1
