2.078632558784314,0.4222044496058186,-0.2920000539515637,1
2.095858787349829,0.3757306713694698,-0.3788530618778716,1
2.113085015915344,0.329256893133121,-0.4657060698041795,1
2.13031124448086,0.2827831148967722,-0.5525590777304874,1
2.147537473046375,0.2363093366604235,-0.6394120856567953,1
2.16476370161189,0.1898355584240747,-0.7262650935831032,1
2.181989930177406,0.1433617801877259,-0.8131181015094112,1
2.199216158742921,0.09688800195137715,-0.899971109435719,1
2.216442387308436,0.05041422371502841,-0.9868241173620269,1
2.233668615873952,0.003940445478679611,-1.073677125288335,1
2.250894844439467,-0.04253333275766913,-1.160530133214642,1
2.030076191550624,0.3414835165614868,-0.2584380193064533,1
2.047302420116139,0.295009738325138,-0.3452910272327612,1
2.064528648681655,0.2485359600887892,-0.4321440351590691,1
2.08175487724717,0.2020621818524404,-0.518997043085377,1
2.098981105812685,0.1555884036160917,-0.6058500510116848,1
2.116207334378201,0.1091146253797429,-0.6927030589379927,1
2.133433562943716,0.06264084714339413,-0.7795560668643007,1
2.150659791509232,0.01616706890704533,-0.8664090747906085,1
2.167886020074747,-0.03030670932930335,-0.9532620827169164,1
2.185112248640262,-0.07678048756565214,-1.040115090643224,1
2.202338477205778,-0.1232542658020009,-1.126968098569532,1
1.981519824316935,0.260762583517155,-0.2248759846613428,1
1.99874605288245,0.2142888052808062,-0.3117289925876507,1
2.015972281447965,0.1678150270444574,-0.3985820005139585,1
2.033198510013481,0.1213412488081086,-0.4854350084402665,1
2.050424738578996,0.07486747057175985,-0.5722880163665743,1
2.067650967144512,0.02839369233541111,-0.6591410242928822,1
2.084877195710027,-0.01808008590093768,-0.7459940322191903,1
2.102103424275542,-0.06455386413728648,-0.832847040145498,1
2.119329652841058,-0.1110276423736352,-0.9197000480718059,1
2.136555881406573,-0.157501420609984,-1.006553055998114,1
2.153782109972088,-0.2039751988463328,-1.093406063924422,1
1.932963457083245,0.1800416504728232,-0.1913139500162324,1
1.950189685648761,0.1335678722364744,-0.2781669579425402,1
1.967415914214276,0.08709409400012558,-0.3650199658688481,1
1.984642142779791,0.04062031576377678,-0.451872973795156,1
2.001868371345307,-0.005853462472571958,-0.5387259817214639,1
2.019094599910822,-0.0523272407089207,-0.6255789896477718,1
2.036320828476338,-0.09880101894526949,-0.7124319975740797,1
2.053547057041853,-0.1452747971816183,-0.7992850055003876,1
2.070773285607368,-0.191748575417967,-0.8861380134266955,1
2.087999514172883,-0.2382223536543158,-0.9729910213530034,1
2.105225742738399,-0.2846961318906645,-1.059844029279311,1
1.884407089849556,0.09932071742849136,-0.1577519153711219,1
1.901633318415071,0.05284693919214262,-0.2446049232974298,1
1.918859546980586,0.006373160955793822,-0.3314579312237377,1
1.936085775546102,-0.04010061728055497,-0.4183109391500456,1
1.953312004111617,-0.08657439551690371,-0.5051639470763535,1
1.970538232677133,-0.1330481737532525,-0.5920169550026614,1
1.987764461242648,-0.1795219519896013,-0.6788699629289693,1
2.004990689808163,-0.2259957302259502,-0.7657229708552771,1
2.022216918373679,-0.2724695084622988,-0.852575978781585,1
2.039443146939194,-0.3189432866986475,-0.9394289867078929,1
2.056669375504709,-0.3654170649349964,-1.026281994634201,1
1.835850722615866,0.01859978438415955,-0.1241898807260114,1
1.853076951181382,-0.02787399385218919,-0.2110428886523193,1
1.870303179746897,-0.07434777208853793,-0.2978958965786271,1
1.887529408312413,-0.1208215503248868,-0.3847489045049351,1
1.904755636877928,-0.1672953285612355,-0.4716019124312429,1
1.921981865443443,-0.2137691067975843,-0.5584549203575508,1
1.939208094008958,-0.2602428850339332,-0.6453079282838589,1
1.956434322574474,-0.3067166632702819,-0.7321609362101666,1
1.973660551139989,-0.3531904415066305,-0.8190139441364745,1
1.990886779705505,-0.3996642197429794,-0.9058669520627824,1
2.00811300827102,-0.4461379979793281,-0.9927199599890902,1
1.787294355382177,-0.06212114866017232,-0.09062784608090091,1
1.804520583947692,-0.1085949268965211,-0.1774808540072088,1
1.821746812513207,-0.1550687051328699,-0.2643338619335167,1
1.838973041078723,-0.2015424833692186,-0.3511868698598246,1
1.856199269644238,-0.2480162616055675,-0.4380398777861325,1
1.873425498209754,-0.2944900398419162,-0.5248928857124404,1
1.890651726775269,-0.3409638180782651,-0.6117458936387483,1
1.907877955340784,-0.3874375963146138,-0.6985989015650561,1
1.9251041839063,-0.4339113745509625,-0.785451909491364,1
1.942330412471815,-0.4803851527873114,-0.8723049174176719,1
1.95955664103733,-0.52685893102366,-0.9591579253439797,1
1.738737988148487,-0.1428420817045041,-0.05706581143579045,1
1.755964216714003,-0.1893158599408529,-0.1439188193620984,1
1.773190445279518,-0.2357896381772016,-0.2307718272884062,1
1.790416673845034,-0.2822634164135505,-0.3176248352147142,1
1.807642902410549,-0.3287371946498992,-0.404477843141022,1
1.824869130976064,-0.3752109728862479,-0.4913308510673299,1
1.84209535954158,-0.4216847511225968,-0.5781838589936379,1
1.859321588107095,-0.4681585293589455,-0.6650368669199457,1
1.87654781667261,-0.5146323075952941,-0.7518898748462536,1
1.893774045238126,-0.561106085831643,-0.8387428827725615,1
1.911000273803641,-0.6075798640679917,-0.9255958906988693,1
1.690181620914798,-0.2235630147488359,-0.02350377679068003,1
1.707407849480314,-0.2700367929851846,-0.1103567847169879,1
1.724634078045829,-0.3165105712215335,-0.1972097926432958,1
1.741860306611344,-0.3629843494578822,-0.2840628005696038,1
1.759086535176859,-0.4094581276942309,-0.3709158084959115,1
1.776312763742375,-0.4559319059305798,-0.4577688164222194,1
1.79353899230789,-0.5024056841669284,-0.5446218243485275,1
1.810765220873406,-0.5488794624032773,-0.6314748322748353,1
1.827991449438921,-0.595353240639626,-0.7183278402011432,1
1.845217678004436,-0.6418270188759749,-0.8051808481274511,1
1.862443906569952,-0.6883007971123236,-0.8920338560537588,1
1.641625253681109,-0.3042839477931676,0.01005825785443046,1
1.658851482246624,-0.3507577260295165,-0.07679475007187744,1
1.676077710812139,-0.3972315042658652,-0.1636477579981853,1
1.693303939377655,-0.4437052825022141,-0.2505007659244932,1
1.71053016794317,-0.4901790607385628,-0.3373537738508011,1
1.727756396508685,-0.5366528389749115,-0.424206781777109,1
1.744982625074201,-0.5831266172112604,-0.5110597897034169,1
1.762208853639716,-0.629600395447609,-0.5979127976297247,1
1.779435082205231,-0.6760741736839579,-0.6847658055560327,1
1.796661310770747,-0.7225479519203066,-0.7716188134823406,1
1.813887539336262,-0.7690217301566553,-0.8584718214086483,1
1.593068886447419,-0.3850048808374996,0.04362029249954089,1
1.610295115012935,-0.4314786590738482,-0.04323271542676702,1
1.62752134357845,-0.4779524373101972,-0.1300857233530749,1
1.644747572143965,-0.5244262155465458,-0.2169387312793828,1
1.661973800709481,-0.5708999937828947,-0.3037917392056907,1
1.679200029274996,-0.6173737720192434,-0.3906447471319986,1
1.696426257840511,-0.6638475502555921,-0.4774977550583065,1
1.713652486406027,-0.710321328491941,-0.5643507629846143,1
1.730878714971542,-0.7567951067282896,-0.6512037709109223,1
1.748104943537057,-0.8032688849646383,-0.7380567788372302,1
1.765331172102573,-0.8497426632009872,-0.8249097867635379,1
