2.405186672895531,-0.03742301331634912,-0.320018383714188,1
2.486120813825022,-0.02573551912093247,-0.3775776341561237,1
2.567054954754512,-0.01404802492551582,-0.4351368845980593,1
2.647989095684003,-0.002360530730099175,-0.492696135039995,1
2.728923236613493,0.009326963465317473,-0.5502553854819306,1
2.809857377542984,0.02101445766073412,-0.6078146359238663,1
2.890791518472474,0.03270195185615077,-0.665373886365802,1
2.971725659401965,0.04438944605156742,-0.7229331368077377,1
3.052659800331455,0.05607694024698406,-0.7804923872496733,1
3.133593941260946,0.06776443444240071,-0.838051637691609,1
3.214528082190436,0.07945192863781736,-0.8956108881335446,1
2.368044278680943,-0.1031545977818509,-0.3855912542908427,1
2.448978419610433,-0.09146710358643423,-0.4431505047327784,1
2.529912560539924,-0.07977960939101764,-0.5007097551747141,1
2.610846701469414,-0.06809211519560093,-0.5582690056166497,1
2.691780842398904,-0.05640462100018429,-0.6158282560585854,1
2.772714983328395,-0.04471712680476764,-0.6733875065005209,1
2.853649124257886,-0.03302963260935099,-0.7309467569424567,1
2.934583265187376,-0.02134213841393434,-0.7885060073843924,1
3.015517406116867,-0.009654644218517694,-0.8460652578263279,1
3.096451547046357,0.002032849976898898,-0.9036245082682636,1
3.177385687975848,0.01372034417231555,-0.9611837587101992,1
2.330901884466354,-0.1688861822473527,-0.4511641248674974,1
2.411836025395845,-0.157198688051936,-0.508723375309433,1
2.492770166325335,-0.1455111938565194,-0.5662826257513687,1
2.573704307254826,-0.1338236996611027,-0.6238418761933043,1
2.654638448184316,-0.1221362054656861,-0.68140112663524,1
2.735572589113807,-0.1104487112702695,-0.7389603770771757,1
2.816506730043297,-0.0987612170748528,-0.7965196275191113,1
2.897440870972788,-0.08707372287943616,-0.854078877961047,1
2.978375011902278,-0.07538622868401951,-0.9116381284029826,1
3.059309152831769,-0.06369873448860291,-0.9691973788449182,1
3.140243293761259,-0.05201124029318621,-1.026756629286854,1
2.293759490251766,-0.2346177667128546,-0.516736995444152,1
2.374693631181256,-0.2229302725174379,-0.5742962458860876,1
2.455627772110746,-0.2112427783220213,-0.6318554963280233,1
2.536561913040237,-0.1995552841266046,-0.6894147467699591,1
2.617496053969727,-0.1878677899311879,-0.7469739972118946,1
2.698430194899218,-0.1761802957357713,-0.8045332476538303,1
2.779364335828709,-0.1644928015403546,-0.862092498095766,1
2.860298476758199,-0.152805307344938,-0.9196517485377016,1
2.941232617687689,-0.1411178131495213,-0.9772109989796373,1
3.02216675861718,-0.1294303189541047,-1.034770249421573,1
3.10310089954667,-0.1177428247586881,-1.092329499863508,1
2.256617096037177,-0.3003493511783563,-0.5823098660208066,1
2.337551236966667,-0.2886618569829396,-0.6398691164627422,1
2.418485377896158,-0.276974362787523,-0.697428366904678,1
2.499419518825648,-0.2652868685921064,-0.7549876173466136,1
2.580353659755139,-0.2535993743966897,-0.8125468677885493,1
2.661287800684629,-0.241911880201273,-0.8701061182304849,1
2.74222194161412,-0.2302243860058564,-0.9276653686724206,1
2.823156082543611,-0.2185368918104398,-0.9852246191143563,1
2.904090223473101,-0.2068493976150231,-1.042783869556292,1
2.985024364402591,-0.1951619034196065,-1.100343119998227,1
3.065958505332082,-0.1834744092241898,-1.157902370440163,1
2.219474701822588,-0.3660809356438581,-0.6478827365974612,1
2.300408842752079,-0.3543934414484414,-0.705441987039397,1
2.381342983681569,-0.3427059472530248,-0.7630012374813325,1
2.46227712461106,-0.3310184530576082,-0.8205604879232683,1
2.54321126554055,-0.3193309588621915,-0.878119738365204,1
2.624145406470041,-0.3076434646667748,-0.9356789888071395,1
2.705079547399531,-0.2959559704713582,-0.9932382392490753,1
2.786013688329022,-0.2842684762759416,-1.050797489691011,1
2.866947829258512,-0.2725809820805249,-1.108356740132946,1
2.947881970188003,-0.2608934878851082,-1.165915990574882,1
3.028816111117493,-0.2492059936896916,-1.223475241016818,1
2.182332307608,-0.4318125201093599,-0.7134556071741159,1
2.26326644853749,-0.4201250259139432,-0.7710148576160516,1
2.34420058946698,-0.4084375317185265,-0.8285741080579873,1
2.425134730396471,-0.3967500375231099,-0.8861333584999229,1
2.506068871325962,-0.3850625433276934,-0.9436926089418586,1
2.587003012255452,-0.3733750491322766,-1.001251859383794,1
2.667937153184943,-0.3616875549368599,-1.05881110982573,1
2.748871294114433,-0.3500000607414434,-1.116370360267666,1
2.829805435043923,-0.3383125665460268,-1.173929610709601,1
2.910739575973414,-0.3266250723506101,-1.231488861151537,1
2.991673716902905,-0.3149375781551934,-1.289048111593472,1
2.145189913393411,-0.4975441045748617,-0.7790284777507706,1
2.226124054322902,-0.485856610379445,-0.8365877281927062,1
2.307058195252392,-0.4741691161840283,-0.8941469786346419,1
2.387992336181882,-0.4624816219886117,-0.9517062290765775,1
2.468926477111373,-0.4507941277931951,-1.009265479518513,1
2.549860618040864,-0.4391066335977784,-1.066824729960449,1
2.630794758970354,-0.4274191394023617,-1.124383980402385,1
2.711728899899845,-0.4157316452069451,-1.18194323084432,1
2.792663040829335,-0.4040441510115285,-1.239502481286256,1
2.873597181758826,-0.3923566568161118,-1.297061731728191,1
2.954531322688316,-0.3806691626206951,-1.354620982170127,1
2.108047519178823,-0.5632756890403634,-0.8446013483274253,1
2.188981660108313,-0.5515881948449468,-0.9021605987693608,1
2.269915801037803,-0.53990070064953,-0.9597198492112965,1
2.350849941967294,-0.5282132064541134,-1.017279099653232,1
2.431784082896784,-0.5165257122586968,-1.074838350095168,1
2.512718223826275,-0.5048382180632802,-1.132397600537103,1
2.593652364755766,-0.4931507238678635,-1.189956850979039,1
2.674586505685256,-0.4814632296724469,-1.247516101420975,1
2.755520646614746,-0.4697757354770303,-1.30507535186291,1
2.836454787544237,-0.4580882412816136,-1.362634602304846,1
2.917388928473728,-0.4464007470861969,-1.420193852746782,1
2.070905124964234,-0.6290072735058652,-0.9101742189040799,1
2.151839265893724,-0.6173197793104486,-0.9677334693460156,1
2.232773406823215,-0.6056322851150318,-1.025292719787951,1
2.313707547752705,-0.5939447909196152,-1.082851970229887,1
2.394641688682196,-0.5822572967241986,-1.140411220671822,1
2.475575829611687,-0.570569802528782,-1.197970471113758,1
2.556509970541177,-0.5588823083333652,-1.255529721555694,1
2.637444111470667,-0.5471948141379486,-1.31308897199763,1
2.718378252400158,-0.535507319942532,-1.370648222439565,1
2.799312393329648,-0.5238198257471154,-1.428207472881501,1
2.880246534259139,-0.5121323315516986,-1.485766723323436,1
2.033762730749646,-0.6947388579713669,-0.9757470894807345,1
2.114696871679136,-0.6830513637759503,-1.03330633992267,1
2.195631012608626,-0.6713638695805337,-1.090865590364606,1
2.276565153538117,-0.6596763753851171,-1.148424840806541,1
2.357499294467607,-0.6479888811897003,-1.205984091248477,1
2.438433435397098,-0.6363013869942837,-1.263543341690413,1
2.519367576326589,-0.6246138927988671,-1.321102592132348,1
2.600301717256079,-0.6129263986034506,-1.378661842574284,1
2.681235858185569,-0.6012389044080337,-1.43622109301622,1
2.76216999911506,-0.5895514102126171,-1.493780343458155,1
2.84310414004455,-0.5778639160172006,-1.551339593900091,1
