1.444603672427474,0.7771262815472674,-0.6566771371489404,1
1.422180642047296,0.6842306273127872,-0.6861322747808973,1
1.399757611667118,0.591334973078307,-0.7155874124128543,1
1.377334581286941,0.4984393188438268,-0.7450425500448112,1
1.354911550906763,0.4055436646093465,-0.7744976876767682,1
1.332488520526585,0.3126480103748664,-0.803952825308725,1
1.310065490146407,0.2197523561403861,-0.8334079629406821,1
1.287642459766229,0.126856701905906,-0.8628631005726389,1
1.265219429386052,0.03396104767142583,-0.8923182382045959,1
1.242796399005874,-0.05893460656305438,-0.9217733758365528,1
1.220373368625696,-0.1518302607975346,-0.9512285134685098,1
1.50957500824272,0.7403486669760289,-0.5901479511563859,1
1.487151977862543,0.6474530127415485,-0.6196030887883428,1
1.464728947482365,0.5545573585070684,-0.6490582264202998,1
1.442305917102187,0.4616617042725882,-0.6785133640522568,1
1.419882886722009,0.368766050038108,-0.7079685016842137,1
1.397459856341831,0.2758703958036279,-0.7374236393161706,1
1.375036825961654,0.1829747415691476,-0.7668787769481277,1
1.352613795581476,0.09007908733466752,-0.7963339145800845,1
1.330190765201298,-0.002816566899812689,-0.8257890522120415,1
1.30776773482112,-0.0957122211342929,-0.8552441898439984,1
1.285344704440943,-0.1886078753687731,-0.8846993274759554,1
1.574546344057967,0.7035710524047902,-0.5236187651638314,1
1.552123313677789,0.6106753981703101,-0.5530739027957884,1
1.529700283297611,0.5177797439358298,-0.5825290404277453,1
1.507277252917433,0.4248840897013497,-0.6119841780597023,1
1.484854222537256,0.3319884354668695,-0.6414393156916592,1
1.462431192157078,0.2390927812323893,-0.6708944533236162,1
1.4400081617769,0.146197126997909,-0.7003495909555731,1
1.417585131396722,0.05330147276342889,-0.7298047285875301,1
1.395162101016544,-0.03959418147105132,-0.759259866219487,1
1.372739070636367,-0.1324898357055315,-0.788715003851444,1
1.350316040256189,-0.2253854899400117,-0.8181701414834009,1
1.639517679873213,0.6667934378335517,-0.457089579171277,1
1.617094649493035,0.5738977835990715,-0.486544716803234,1
1.594671619112858,0.4810021293645913,-0.5159998544351909,1
1.57224858873268,0.3881064751301111,-0.5454549920671479,1
1.549825558352502,0.2952108208956309,-0.5749101296991048,1
1.527402527972324,0.2023151666611508,-0.6043652673310618,1
1.504979497592146,0.1094195124266705,-0.6338204049630187,1
1.482556467211969,0.01652385819219038,-0.6632755425949757,1
1.460133436831791,-0.07637179604228983,-0.6927306802269326,1
1.437710406451613,-0.16926745027677,-0.7221858178588895,1
1.415287376071435,-0.2621631045112503,-0.7516409554908464,1
1.70448901568846,0.6300158232623132,-0.3905603931787225,1
1.682065985308282,0.537120169027833,-0.4200155308106795,1
1.659642954928104,0.4442245147933528,-0.4494706684426365,1
1.637219924547926,0.3513288605588726,-0.4789258060745935,1
1.614796894167748,0.2584332063243924,-0.5083809437065504,1
1.592373863787571,0.1655375520899123,-0.5378360813385074,1
1.569950833407393,0.07264189785543196,-0.5672912189704643,1
1.547527803027215,-0.02025375637904814,-0.5967463566024213,1
1.525104772647037,-0.1131494106135283,-0.6262014942343782,1
1.502681742266859,-0.2060450648480086,-0.6556566318663352,1
1.480258711886682,-0.2989407190824889,-0.6851117694982921,1
1.769460351503706,0.5932382086910746,-0.3240312071861682,1
1.747037321123528,0.5003425544565945,-0.3534863448181251,1
1.72461429074335,0.4074469002221143,-0.3829414824500821,1
1.702191260363173,0.314551245987634,-0.412396620082039,1
1.679768229982995,0.2216555917531537,-0.441851757713996,1
1.657345199602817,0.1287599375186737,-0.4713068953459529,1
1.634922169222639,0.03586428328419333,-0.5007620329779099,1
1.612499138842461,-0.05703137095028676,-0.5302171706098668,1
1.590076108462284,-0.1499270251847669,-0.5596723082418238,1
1.567653078082106,-0.2428226794192472,-0.5891274458737806,1
1.545230047701928,-0.3357183336537273,-0.6185825835057376,1
1.834431687318952,0.5564605941198361,-0.2575020211936137,1
1.812008656938775,0.4635649398853559,-0.2869571588255706,1
1.789585626558597,0.3706692856508756,-0.3164122964575276,1
1.767162596178419,0.2777736314163954,-0.3458674340894845,1
1.744739565798241,0.1848779771819152,-0.3753225717214415,1
1.722316535418063,0.09198232294743514,-0.4047777093533984,1
1.699893505037886,-0.0009133312870451826,-0.4342328469853554,1
1.677470474657708,-0.09380898552152528,-0.4636879846173123,1
1.65504744427753,-0.1867046397560055,-0.4931431222492693,1
1.632624413897352,-0.2796002939904856,-0.5225982598812261,1
1.610201383517174,-0.372495948224966,-0.5520533975131831,1
1.899403023134199,0.5196829795485975,-0.1909728352010592,1
1.876979992754021,0.4267873253141173,-0.2204279728330162,1
1.854556962373843,0.3338916710796371,-0.2498831104649731,1
1.832133931993665,0.2409960168451569,-0.2793382480969301,1
1.809710901613488,0.1481003626106767,-0.308793385728887,1
1.78728787123331,0.05520470837619662,-0.338248523360844,1
1.764864840853132,-0.0376909458582837,-0.3677036609928009,1
1.742441810472954,-0.1305866000927638,-0.3971587986247578,1
1.720018780092777,-0.2234822543272439,-0.4266139362567148,1
1.697595749712599,-0.3163779085617243,-0.4560690738886717,1
1.675172719332421,-0.4092735627962046,-0.4855242115206286,1
1.964374358949445,0.482905364977359,-0.1244436492085047,1
1.941951328569267,0.3900097107428788,-0.1538987868404617,1
1.91952829818909,0.2971140565083986,-0.1833539244724186,1
1.897105267808912,0.2042184022739184,-0.2128090621043756,1
1.874682237428734,0.1113227480394381,-0.2422641997363325,1
1.852259207048556,0.01842709380495799,-0.2717193373682895,1
1.829836176668378,-0.07446856042952232,-0.3011744750002464,1
1.807413146288201,-0.1673642146640024,-0.3306296126322034,1
1.784990115908023,-0.2602598688984826,-0.3600847502641603,1
1.762567085527845,-0.3531555231329629,-0.3895398878961173,1
1.740144055147667,-0.446051177367443,-0.4189950255280742,1
2.029345694764692,0.4461277504061205,-0.05791446321595026,1
2.006922664384514,0.3532320961716403,-0.08736960084790721,1
1.984499634004336,0.2603364419371601,-0.1168247384798642,1
1.962076603624158,0.1674407877026798,-0.1462798761118212,1
1.93965357324398,0.07454513346819969,-0.1757350137437781,1
1.917230542863803,-0.01835052076628041,-0.205190151375735,1
1.894807512483625,-0.1112461750007607,-0.234645289007692,1
1.872384482103447,-0.2041418292352409,-0.2641004266396489,1
1.849961451723269,-0.2970374834697212,-0.2935555642716059,1
1.827538421343092,-0.3899331377042013,-0.3230107019035628,1
1.805115390962914,-0.4828287919386816,-0.3524658395355198,1
2.094317030579938,0.4093501358348819,0.008614722776604161,1
2.07189400019976,0.3164544816004018,-0.02084041485535279,1
2.049470969819582,0.2235588273659216,-0.05029555248730974,1
2.027047939439405,0.1306631731314414,-0.07975069011926669,1
2.004624909059227,0.03776751889696106,-0.1092058277512236,1
1.982201878679049,-0.05512813533751904,-0.1386609653831806,1
1.959778848298871,-0.1480237895719994,-0.1681161030151376,1
1.937355817918693,-0.2409194438064795,-0.1975712406470945,1
1.914932787538516,-0.3338150980409596,-0.2270263782790514,1
1.892509757158338,-0.4267107522754399,-0.2564815159110084,1
1.87008672677816,-0.51960640650992,-0.2859366535429654,1
