1.024553244260335,0.1667134709853448,-0.2790090608314251,1
0.98291080445034,0.1663126352669648,-0.3699252119675013,1
0.9412683646403454,0.1659117995485848,-0.4608413631035775,1
0.8996259248303508,0.1655109638302048,-0.5517575142396536,1
0.8579834850203562,0.1651101281118248,-0.6426736653757298,1
0.8163410452103615,0.1647092923934448,-0.7335898165118059,1
0.7746986054003668,0.1643084566750648,-0.8245059676478822,1
0.7330561655903722,0.1639076209566848,-0.9154221187839583,1
0.6914137257803776,0.1635067852383048,-1.006338269920034,1
0.6497712859703829,0.1631059495199248,-1.097254421056111,1
0.6081288461603883,0.1627051138015448,-1.188170572192186,1
1.115348375257292,0.1717068003887477,-0.3206180844767167,1
1.073705935447298,0.1713059646703677,-0.4115342356127929,1
1.032063495637303,0.1709051289519877,-0.5024503867488691,1
0.9904210558273082,0.1705042932336077,-0.5933665378849453,1
0.9487786160173136,0.1701034575152277,-0.6842826890210215,1
0.907136176207319,0.1697026217968477,-0.7751988401570976,1
0.8654937363973244,0.1693017860784677,-0.8661149912931738,1
0.8238512965873297,0.1689009503600877,-0.9570311424292499,1
0.7822088567773351,0.1685001146417077,-1.047947293565326,1
0.7405664169673404,0.1680992789233277,-1.138863444701402,1
0.6989239771573458,0.1676984432049477,-1.229779595837478,1
1.20614350625425,0.1767001297921506,-0.3622271081220084,1
1.164501066444255,0.1762992940737706,-0.4531432592580845,1
1.12285862663426,0.1758984583553906,-0.5440594103941607,1
1.081216186824266,0.1754976226370106,-0.6349755615302369,1
1.039573747014271,0.1750967869186306,-0.725891712666313,1
0.9979313072042765,0.1746959512002506,-0.8168078638023892,1
0.9562888673942819,0.1742951154818706,-0.9077240149384656,1
0.9146464275842873,0.1738942797634906,-0.9986401660745416,1
0.8730039877742927,0.1734934440451106,-1.089556317210618,1
0.831361547964298,0.1730926083267306,-1.180472468346694,1
0.7897191081543034,0.1726917726083506,-1.27138861948277,1
1.296938637251207,0.1816934591955535,-0.4038361317673,1
1.255296197441212,0.1812926234771735,-0.4947522829033763,1
1.213653757631218,0.1808917877587935,-0.5856684340394523,1
1.172011317821223,0.1804909520404135,-0.6765845851755287,1
1.130368878011229,0.1800901163220335,-0.7675007363116048,1
1.088726438201234,0.1796892806036535,-0.8584168874476809,1
1.047083998391239,0.1792884448852735,-0.9493330385837572,1
1.005441558581245,0.1788876091668935,-1.040249189719833,1
0.9637991187712501,0.1784867734485135,-1.131165340855909,1
0.9221566789612555,0.1780859377301335,-1.222081491991986,1
0.8805142391512609,0.1776851020117535,-1.312997643128061,1
1.387733768248165,0.1866867885989564,-0.4454451554125917,1
1.34609132843817,0.1862859528805764,-0.5363613065486679,1
1.304448888628175,0.1858851171621964,-0.6272774576847441,1
1.262806448818181,0.1854842814438164,-0.7181936088208202,1
1.221164009008186,0.1850834457254364,-0.8091097599568964,1
1.179521569198191,0.1846826100070564,-0.9000259110929725,1
1.137879129388197,0.1842817742886764,-0.9909420622290488,1
1.096236689578202,0.1838809385702964,-1.081858213365125,1
1.054594249768207,0.1834801028519163,-1.172774364501201,1
1.012951809958213,0.1830792671335364,-1.263690515637277,1
0.9713093701482184,0.1826784314151564,-1.354606666773353,1
1.478528899245122,0.1916801180023593,-0.4870541790578833,1
1.436886459435127,0.1912792822839793,-0.5779703301939595,1
1.395244019625133,0.1908784465655993,-0.6688864813300357,1
1.353601579815138,0.1904776108472193,-0.7598026324661119,1
1.311959140005144,0.1900767751288392,-0.850718783602188,1
1.270316700195149,0.1896759394104593,-0.9416349347382641,1
1.228674260385154,0.1892751036920793,-1.03255108587434,1
1.18703182057516,0.1888742679736993,-1.123467237010416,1
1.145389380765165,0.1884734322553193,-1.214383388146492,1
1.10374694095517,0.1880725965369393,-1.305299539282569,1
1.062104501145176,0.1876717608185592,-1.396215690418645,1
1.569324030242079,0.1966734474057622,-0.528663202703175,1
1.527681590432085,0.1962726116873822,-0.6195793538392511,1
1.48603915062209,0.1958717759690022,-0.7104955049753273,1
1.444396710812096,0.1954709402506222,-0.8014116561114035,1
1.402754271002101,0.1950701045322422,-0.8923278072474797,1
1.361111831192106,0.1946692688138622,-0.9832439583835558,1
1.319469391382112,0.1942684330954822,-1.074160109519632,1
1.277826951572117,0.1938675973771022,-1.165076260655708,1
1.236184511762123,0.1934667616587222,-1.255992411791784,1
1.194542071952128,0.1930659259403422,-1.34690856292786,1
1.152899632142133,0.1926650902219622,-1.437824714063936,1
1.660119161239037,0.2016667768091651,-0.5702722263484666,1
1.618476721429043,0.201265941090785,-0.6611883774845427,1
1.576834281619048,0.2008651053724051,-0.7521045286206189,1
1.535191841809053,0.2004642696540251,-0.8430206797566951,1
1.493549401999059,0.2000634339356451,-0.9339368308927712,1
1.451906962189064,0.1996625982172651,-1.024852982028847,1
1.410264522379069,0.1992617624988851,-1.115769133164924,1
1.368622082569075,0.198860926780505,-1.206685284301,1
1.32697964275908,0.1984600910621251,-1.297601435437076,1
1.285337202949085,0.198059255343745,-1.388517586573152,1
1.243694763139091,0.1976584196253651,-1.479433737709228,1
1.750914292235995,0.206660106212568,-0.6118812499937583,1
1.709271852426,0.206259270494188,-0.7027974011298345,1
1.667629412616005,0.205858434775808,-0.7937135522659106,1
1.625986972806011,0.2054575990574279,-0.8846297034019868,1
1.584344532996016,0.205056763339048,-0.975545854538063,1
1.542702093186021,0.2046559276206679,-1.066462005674139,1
1.501059653376027,0.204255091902288,-1.157378156810215,1
1.459417213566032,0.203854256183908,-1.248294307946291,1
1.417774773756038,0.2034534204655279,-1.339210459082367,1
1.376132333946043,0.2030525847471479,-1.430126610218444,1
1.334489894136048,0.202651749028768,-1.52104276135452,1
1.841709423232952,0.2116534356159709,-0.6534902736390499,1
1.800066983422957,0.2112525998975908,-0.744406424775126,1
1.758424543612963,0.2108517641792109,-0.8353225759112022,1
1.716782103802968,0.2104509284608309,-0.9262387270472784,1
1.675139663992974,0.2100500927424508,-1.017154878183354,1
1.633497224182979,0.2096492570240708,-1.10807102931943,1
1.591854784372984,0.2092484213056909,-1.198987180455507,1
1.55021234456299,0.2088475855873108,-1.289903331591583,1
1.508569904752995,0.2084467498689309,-1.380819482727659,1
1.466927464943,0.2080459141505508,-1.471735633863735,1
1.425285025133006,0.2076450784321708,-1.562651784999811,1
1.93250455422991,0.2166467650193737,-0.6950992972843416,1
1.890862114419915,0.2162459293009938,-0.7860154484204177,1
1.84921967460992,0.2158450935826138,-0.8769315995564939,1
1.807577234799925,0.2154442578642337,-0.9678477506925701,1
1.765934794989931,0.2150434221458538,-1.058763901828646,1
1.724292355179936,0.2146425864274737,-1.149680052964722,1
1.682649915369942,0.2142417507090937,-1.240596204100799,1
1.641007475559947,0.2138409149907138,-1.331512355236875,1
1.599365035749952,0.2134400792723337,-1.422428506372951,1
1.557722595939958,0.2130392435539538,-1.513344657509027,1
1.516080156129963,0.2126384078355738,-1.604260808645103,1
