0.9193131834166268,0.7847180343852227,-0.4081025501709368,1
0.9602256824118066,0.8556400338380816,-0.46551541823706,1
1.001138181406986,0.9265620332909406,-0.5229282863031833,1
1.042050680402166,0.9974840327437997,-0.5803411543693067,1
1.082963179397346,1.068406032196659,-0.63775402243543,1
1.123875678392526,1.139328031649518,-0.6951668905015532,1
1.164788177387706,1.210250031102377,-0.7525797585676767,1
1.205700676382886,1.281172030555236,-0.8099926266337999,1
1.246613175378065,1.352094030008095,-0.8674054946999231,1
1.287525674373245,1.423016029460954,-0.9248183627660465,1
1.328438173368425,1.493938028913812,-0.9822312308321698,1
1.010385914931269,0.7568760824000967,-0.377597086986127,1
1.051298413926449,0.8277980818529558,-0.4350099550522503,1
1.092210912921629,0.8987200813058147,-0.4924228231183736,1
1.133123411916809,0.9696420807586736,-0.5498356911844969,1
1.174035910911988,1.040564080211533,-0.6072485592506203,1
1.214948409907168,1.111486079664392,-0.6646614273167436,1
1.255860908902348,1.182408079117251,-0.7220742953828668,1
1.296773407897528,1.25333007857011,-0.7794871634489902,1
1.337685906892708,1.324252078022969,-0.8369000315151135,1
1.378598405887888,1.395174077475827,-0.8943128995812367,1
1.419510904883068,1.466096076928686,-0.9517257676473601,1
1.101458646445912,0.7290341304149708,-0.3470916238013173,1
1.142371145441092,0.7999561298678297,-0.4045044918674405,1
1.183283644436271,0.8708781293206886,-0.4619173599335639,1
1.224196143431451,0.9418001287735478,-0.5193302279996872,1
1.265108642426631,1.012722128226407,-0.5767430960658105,1
1.306021141421811,1.083644127679266,-0.6341559641319338,1
1.346933640416991,1.154566127132125,-0.6915688321980571,1
1.387846139412171,1.225488126584984,-0.7489817002641804,1
1.428758638407351,1.296410126037842,-0.8063945683303037,1
1.46967113740253,1.367332125490701,-0.863807436396427,1
1.51058363639771,1.438254124943561,-0.9212203044625503,1
1.192531377960554,0.7011921784298447,-0.3165861606165075,1
1.233443876955734,0.7721141778827036,-0.3739990286826308,1
1.274356375950914,0.8430361773355626,-0.4314118967487541,1
1.315268874946094,0.9139581767884217,-0.4888247648148775,1
1.356181373941274,0.9848801762412807,-0.5462376328810007,1
1.397093872936453,1.05580217569414,-0.603650500947124,1
1.438006371931633,1.126724175146999,-0.6610633690132474,1
1.478918870926813,1.197646174599857,-0.7184762370793706,1
1.519831369921993,1.268568174052716,-0.7758891051454939,1
1.560743868917173,1.339490173505576,-0.8333019732116173,1
1.601656367912353,1.410412172958434,-0.8907148412777406,1
1.283604109475197,0.6733502264447188,-0.2860806974316977,1
1.324516608470377,0.7442722258975778,-0.3434935654978211,1
1.365429107465556,0.8151942253504367,-0.4009064335639444,1
1.406341606460736,0.8861162248032957,-0.4583193016300677,1
1.447254105455916,0.9570382242561546,-0.515732169696191,1
1.488166604451096,1.027960223709014,-0.5731450377623143,1
1.529079103446276,1.098882223161873,-0.6305579058284376,1
1.569991602441456,1.169804222614732,-0.687970773894561,1
1.610904101436635,1.240726222067591,-0.7453836419606842,1
1.651816600431815,1.311648221520449,-0.8027965100268075,1
1.692729099426995,1.382570220973308,-0.8602093780929309,1
1.374676840989839,0.6455082744595928,-0.255575234246888,1
1.415589339985019,0.7164302739124517,-0.3129881023130113,1
1.456501838980199,0.7873522733653107,-0.3704009703791347,1
1.497414337975379,0.8582742728181698,-0.427813838445258,1
1.538326836970558,0.9291962722710287,-0.4852267065113812,1
1.579239335965738,1.000118271723888,-0.5426395745775046,1
1.620151834960918,1.071040271176747,-0.6000524426436279,1
1.661064333956098,1.141962270629606,-0.6574653107097511,1
1.701976832951278,1.212884270082464,-0.7148781787758745,1
1.742889331946458,1.283806269535323,-0.7722910468419978,1
1.783801830941638,1.354728268988183,-0.8297039149081211,1
1.465749572504482,0.6176663224744667,-0.2250697710620782,1
1.506662071499662,0.6885883219273257,-0.2824826391282015,1
1.547574570494841,0.7595103213801846,-0.3398955071943248,1
1.588487069490021,0.8304323208330437,-0.3973083752604482,1
1.629399568485201,0.9013543202859027,-0.4547212433265715,1
1.670312067480381,0.9722763197387616,-0.5121341113926947,1
1.711224566475561,1.043198319191621,-0.569546979458818,1
1.752137065470741,1.114120318644479,-0.6269598475249414,1
1.793049564465921,1.185042318097338,-0.6843727155910647,1
1.8339620634611,1.255964317550197,-0.7417855836571879,1
1.87487456245628,1.326886317003056,-0.7991984517233114,1
1.556822304019124,0.5898243704893407,-0.1945643078772685,1
1.597734803014304,0.6607463699421997,-0.2519771759433918,1
1.638647302009484,0.7316683693950587,-0.3093900440095151,1
1.679559801004664,0.8025903688479177,-0.3668029120756384,1
1.720472299999844,0.8735123683007766,-0.4242157801417618,1
1.761384798995024,0.9444343677536355,-0.481628648207885,1
1.802297297990203,1.015356367206494,-0.5390415162740083,1
1.843209796985383,1.086278366659354,-0.5964543843401316,1
1.884122295980563,1.157200366112213,-0.6538672524062549,1
1.925034794975743,1.228122365565071,-0.7112801204723783,1
1.965947293970923,1.29904436501793,-0.7686929885385015,1
1.647895035533767,0.5619824185042148,-0.1640588446924588,1
1.688807534528947,0.6329044179570738,-0.2214717127585821,1
1.729720033524127,0.7038264174099327,-0.2788845808247054,1
1.770632532519306,0.7747484168627917,-0.3362974488908287,1
1.811545031514486,0.8456704163156508,-0.393710316956952,1
1.852457530509666,0.9165924157685097,-0.4511231850230752,1
1.893370029504846,0.9875144152213686,-0.5085360530891986,1
1.934282528500026,1.058436414674228,-0.5659489211553219,1
1.975195027495205,1.129358414127086,-0.6233617892214451,1
2.016107526490385,1.200280413579945,-0.6807746572875685,1
2.057020025485565,1.271202413032805,-0.7381875253536919,1
1.738967767048409,0.5341404665190888,-0.133553381507649,1
1.779880266043589,0.6050624659719478,-0.1909662495737723,1
1.820792765038769,0.6759844654248068,-0.2483791176398956,1
1.861705264033949,0.7469064648776658,-0.305791985706019,1
1.902617763029129,0.8178284643305247,-0.3632048537721423,1
1.943530262024308,0.8887504637833836,-0.4206177218382655,1
1.984442761019488,0.9596724632362426,-0.4780305899043888,1
2.025355260014668,1.030594462689102,-0.5354434579705122,1
2.066267759009848,1.101516462141961,-0.5928563260366354,1
2.107180258005028,1.17243846159482,-0.6502691941027589,1
2.148092757000208,1.243360461047679,-0.7076820621688821,1
1.830040498563052,0.5062985145339629,-0.1030479183228393,1
1.870952997558232,0.5772205139868218,-0.1604607863889626,1
1.911865496553411,0.6481425134396808,-0.2178736544550859,1
1.952777995548591,0.7190645128925398,-0.2752865225212092,1
1.993690494543771,0.7899865123453987,-0.3326993905873326,1
2.034602993538951,0.8609085117982578,-0.3901122586534558,1
2.075515492534131,0.9318305112511167,-0.4475251267195791,1
2.11642799152931,1.002752510703976,-0.5049379947857024,1
2.15734049052449,1.073674510156835,-0.5623508628518257,1
2.19825298951967,1.144596509609694,-0.619763730917949,1
2.23916548851485,1.215518509062553,-0.6771765989840725,1
