2.354507394430283,0.5340854814684375,0.09354806093407858,1
2.35176901430358,0.5886396560029776,0.1773116766340745,1
2.349030634176877,0.6431938305375178,0.2610752923340705,1
2.346292254050174,0.6977480050720579,0.3448389080340665,1
2.343553873923471,0.7523021796065981,0.4286025237340624,1
2.340815493796768,0.8068563541411382,0.5123661394340583,1
2.338077113670065,0.8614105286756786,0.5961297551340542,1
2.335338733543362,0.9159647032102187,0.6798933708340501,1
2.332600353416659,0.9705188777447589,0.763656986534046,1
2.329861973289956,1.025073052279299,0.8474206022340419,1
2.327123593163253,1.079627226813839,0.9311842179340378,1
2.261633831963203,0.5636901633845719,0.07123070886628347,1
2.2588954518365,0.618244337919112,0.1549943245662794,1
2.256157071709797,0.6727985124536523,0.2387579402662754,1
2.253418691583094,0.7273526869881926,0.3225215559662713,1
2.250680311456391,0.7819068615227327,0.4062851716662672,1
2.247941931329688,0.8364610360572728,0.4900487873662631,1
2.245203551202985,0.891015210591813,0.5738124030662591,1
2.242465171076282,0.9455693851263531,0.657576018766255,1
2.239726790949579,1.000123559660893,0.741339634466251,1
2.236988410822876,1.054677734195433,0.8251032501662469,1
2.234250030696173,1.109231908729974,0.9088668658662428,1
2.168760269496123,0.5932948453007064,0.04891335679848835,1
2.16602188936942,0.6478490198352467,0.1326769724984843,1
2.163283509242717,0.7024031943697868,0.2164405881984802,1
2.160545129116014,0.756957368904327,0.3002042038984762,1
2.157806748989311,0.8115115434388671,0.383967819598472,1
2.155068368862608,0.8660657179734073,0.4677314352984679,1
2.152329988735905,0.9206198925079474,0.551495050998464,1
2.149591608609202,0.9751740670424875,0.63525866669846,1
2.146853228482499,1.029728241577028,0.7190222823984559,1
2.144114848355796,1.084282416111568,0.8027858980984518,1
2.141376468229093,1.138836590646108,0.8865495137984477,1
2.075886707029043,0.6228995272168409,0.02659600473069321,1
2.07314832690234,0.6774537017513811,0.1103596204306892,1
2.070409946775637,0.7320078762859212,0.1941232361306851,1
2.067671566648934,0.7865620508204614,0.2778868518306811,1
2.064933186522231,0.8411162253550015,0.361650467530677,1
2.062194806395528,0.8956703998895417,0.4454140832306729,1
2.059456426268826,0.950224574424082,0.5291776989306688,1
2.056718046142123,1.004778748958622,0.6129413146306647,1
2.05397966601542,1.059332923493162,0.6967049303306606,1
2.051241285888717,1.113887098027702,0.7804685460306565,1
2.048502905762014,1.168441272562243,0.8642321617306524,1
1.983013144561963,0.6525042091329754,0.004278652662898091,1
1.98027476443526,0.7070583836675155,0.08804226836289403,1
1.977536384308557,0.7616125582020556,0.17180588406289,1
1.974798004181854,0.816166732736596,0.255569499762886,1
1.972059624055151,0.8707209072711362,0.3393331154628819,1
1.969321243928448,0.9252750818056763,0.4230967311628778,1
1.966582863801746,0.9798292563402164,0.5068603468628737,1
1.963844483675043,1.034383430874757,0.5906239625628696,1
1.96110610354834,1.088937605409297,0.6743875782628656,1
1.958367723421637,1.143491779943837,0.7581511939628615,1
1.955629343294934,1.198045954478377,0.8419148096628574,1
1.890139582094883,0.6821088910491099,-0.01803869940489702,1
1.887401201968181,0.73666306558365,0.06572491629509891,1
1.884662821841477,0.7912172401181903,0.1494885319950948,1
1.881924441714774,0.8457714146527304,0.2332521476950909,1
1.879186061588072,0.9003255891872706,0.3170157633950867,1
1.876447681461369,0.9548797637218107,0.4007793790950827,1
1.873709301334666,1.009433938256351,0.4845429947950787,1
1.870970921207963,1.063988112790891,0.5683066104950746,1
1.86823254108126,1.118542287325431,0.6520702261950705,1
1.865494160954557,1.173096461859972,0.7358338418950664,1
1.862755780827854,1.227650636394511,0.8195974575950623,1
1.797266019627803,0.7117135729652444,-0.04035605147269217,1
1.794527639501101,0.7662677474997845,0.04340756422730377,1
1.791789259374398,0.8208219220343247,0.1271711799272997,1
1.789050879247695,0.8753760965688648,0.2109347956272957,1
1.786312499120992,0.929930271103405,0.2946984113272916,1
1.783574118994289,0.9844844456379451,0.3784620270272875,1
1.780835738867586,1.039038620172485,0.4622256427272834,1
1.778097358740883,1.093592794707026,0.5459892584272795,1
1.77535897861418,1.148146969241566,0.6297528741272754,1
1.772620598487477,1.202701143776106,0.7135164898272713,1
1.769882218360774,1.257255318310646,0.7972801055272672,1
1.704392457160724,0.7413182548813788,-0.06267340354048728,1
1.701654077034021,0.795872429415919,0.02109021215950865,1
1.698915696907318,0.8504266039504591,0.1048538278595046,1
1.696177316780615,0.9049807784849995,0.1886174435595006,1
1.693438936653912,0.9595349530195396,0.2723810592594965,1
1.690700556527209,1.01408912755408,0.3561446749594924,1
1.687962176400506,1.06864330208862,0.4399082906594883,1
1.685223796273803,1.12319747662316,0.5236719063594842,1
1.6824854161471,1.1777516511577,0.6074355220594801,1
1.679747036020397,1.23230582569224,0.6911991377594761,1
1.677008655893694,1.28686000022678,0.774962753459472,1
1.611518894693644,0.7709229367975132,-0.0849907556082824,1
1.608780514566941,0.8254771113320536,-0.001227139908286462,1
1.606042134440238,0.8800312858665937,0.0825364757917095,1
1.603303754313535,0.9345854604011339,0.1663000914917055,1
1.600565374186832,0.989139634935674,0.2500637071917013,1
1.597826994060129,1.043693809470214,0.3338273228916973,1
1.595088613933426,1.098247984004754,0.4175909385916933,1
1.592350233806723,1.152802158539294,0.5013545542916892,1
1.58961185368002,1.207356333073835,0.5851181699916851,1
1.586873473553317,1.261910507608375,0.668881785691681,1
1.584135093426614,1.316464682142915,0.7526454013916769,1
1.518645332226564,0.8005276187136479,-0.1073081076760775,1
1.515906952099861,0.855081793248188,-0.02354449197608158,1
1.513168571973158,0.9096359677827281,0.06021912372391439,1
1.510430191846455,0.9641901423172683,0.1439827394239104,1
1.507691811719752,1.018744316851808,0.2277463551239063,1
1.504953431593049,1.073298491386349,0.3115099708239022,1
1.502215051466346,1.127852665920889,0.3952735865238982,1
1.499476671339643,1.182406840455429,0.4790372022238941,1
1.496738291212941,1.236961014989969,0.56280081792389,1
1.493999911086238,1.291515189524509,0.6465644336238859,1
1.491261530959535,1.346069364059049,0.7303280493238818,1
1.425771769759484,0.8301323006297823,-0.1296254597438726,1
1.423033389632781,0.8846864751643224,-0.04586184404387669,1
1.420295009506078,0.9392406496988626,0.03790177165611927,1
1.417556629379376,0.9937948242334027,0.1216653873561152,1
1.414818249252672,1.048348998767943,0.2054290030561111,1
1.41207986912597,1.102903173302483,0.289192618756107,1
1.409341488999267,1.157457347837023,0.3729562344561029,1
1.406603108872564,1.212011522371564,0.4567198501560991,1
1.403864728745861,1.266565696906104,0.540483465856095,1
1.401126348619158,1.321119871440644,0.6242470815560909,1
1.398387968492455,1.375674045975184,0.7080106972560868,1
