1.699714060196287,0.0830754242656063,-0.5291765461603077,1
1.671400556345255,0.115212690818841,-0.6195399325408764,1
1.643087052494223,0.1473499573720758,-0.7099033189214451,1
1.614773548643191,0.1794872239253105,-0.8002667053020137,1
1.586460044792159,0.2116244904785453,-0.8906300916825823,1
1.558146540941127,0.24376175703178,-0.980993478063151,1
1.529833037090096,0.2758990235850148,-1.07135686444372,1
1.501519533239064,0.3080362901382496,-1.161720250824288,1
1.473206029388032,0.3401735566914843,-1.252083637204857,1
1.444892525537,0.372310823244719,-1.342447023585426,1
1.416579021685968,0.4044480897979538,-1.432810409965994,1
1.793780558516374,0.1107552371744559,-0.5488061628434751,1
1.765467054665342,0.1428925037276907,-0.6391695492240437,1
1.737153550814311,0.1750297702809254,-0.7295329356046124,1
1.708840046963279,0.2071670368341602,-0.819896321985181,1
1.680526543112247,0.2393043033873949,-0.9102597083657498,1
1.652213039261215,0.2714415699406297,-1.000623094746318,1
1.623899535410183,0.3035788364938645,-1.090986481126887,1
1.595586031559151,0.3357161030470992,-1.181349867507456,1
1.567272527708119,0.367853369600334,-1.271713253888024,1
1.538959023857087,0.3999906361535687,-1.362076640268593,1
1.510645520006055,0.4321279027068035,-1.452440026649162,1
1.887847056836462,0.1384350500833056,-0.5684357795266424,1
1.85953355298543,0.1705723166365403,-0.6587991659072111,1
1.831220049134398,0.2027095831897751,-0.7491625522877797,1
1.802906545283366,0.2348468497430098,-0.8395259386683485,1
1.774593041432334,0.2669841162962446,-0.9298893250489172,1
1.746279537581302,0.2991213828494793,-1.020252711429486,1
1.71796603373027,0.3312586494027141,-1.110616097810055,1
1.689652529879238,0.3633959159559488,-1.200979484190623,1
1.661339026028207,0.3955331825091836,-1.291342870571192,1
1.633025522177175,0.4276704490624184,-1.38170625695176,1
1.604712018326143,0.4598077156156531,-1.472069643332329,1
1.981913555156549,0.1661148629921552,-0.5880653962098098,1
1.953600051305517,0.19825212954539,-0.6784287825903784,1
1.925286547454485,0.2303893960986247,-0.7687921689709472,1
1.896973043603453,0.2625266626518595,-0.8591555553515158,1
1.868659539752421,0.2946639292050942,-0.9495189417320845,1
1.84034603590139,0.326801195758329,-1.039882328112653,1
1.812032532050358,0.3589384623115638,-1.130245714493222,1
1.783719028199326,0.3910757288647985,-1.22060910087379,1
1.755405524348294,0.4232129954180333,-1.310972487254359,1
1.727092020497262,0.455350261971268,-1.401335873634928,1
1.69877851664623,0.4874875285245027,-1.491699260015496,1
2.075980053476636,0.1937946759010049,-0.6076950128929771,1
2.047666549625605,0.2259319424542396,-0.6980583992735458,1
2.019353045774573,0.2580692090074744,-0.7884217856541145,1
1.991039541923541,0.2902064755607091,-0.8787851720346832,1
1.962726038072509,0.3223437421139439,-0.9691485584152518,1
1.934412534221477,0.3544810086671786,-1.05951194479582,1
1.906099030370445,0.3866182752204134,-1.149875331176389,1
1.877785526519413,0.4187555417736482,-1.240238717556958,1
1.849472022668381,0.4508928083268829,-1.330602103937526,1
1.821158518817349,0.4830300748801176,-1.420965490318095,1
1.792845014966318,0.5151673414333524,-1.511328876698664,1
2.170046551796724,0.2214744888098545,-0.6273246295761444,1
2.141733047945692,0.2536117553630893,-0.7176880159567132,1
2.11341954409466,0.285749021916324,-0.8080514023372819,1
2.085106040243628,0.3178862884695588,-0.8984147887178505,1
2.056792536392596,0.3500235550227935,-0.9887781750984191,1
2.028479032541564,0.3821608215760283,-1.079141561478988,1
2.000165528690533,0.4142980881292631,-1.169504947859556,1
1.9718520248395,0.4464353546824978,-1.259868334240125,1
1.943538520988469,0.4785726212357326,-1.350231720620694,1
1.915225017137437,0.5107098877889673,-1.440595107001263,1
1.886911513286405,0.542847154342202,-1.530958493381831,1
2.264113050116811,0.2491543017187042,-0.6469542462593119,1
2.235799546265779,0.2812915682719389,-0.7373176326398806,1
2.207486042414747,0.3134288348251737,-0.8276810190204492,1
2.179172538563715,0.3455661013784084,-0.9180444054010178,1
2.150859034712683,0.3777033679316432,-1.008407791781587,1
2.122545530861652,0.4098406344848779,-1.098771178162155,1
2.09423202701062,0.4419779010381127,-1.189134564542724,1
2.065918523159588,0.4741151675913475,-1.279497950923292,1
2.037605019308556,0.5062524341445822,-1.369861337303861,1
2.009291515457524,0.5383897006978169,-1.46022472368443,1
1.980978011606492,0.5705269672510517,-1.550588110064999,1
2.358179548436898,0.2768341146275538,-0.6665838629424792,1
2.329866044585867,0.3089713811807886,-0.7569472493230479,1
2.301552540734835,0.3411086477340233,-0.8473106357036165,1
2.273239036883803,0.3732459142872581,-0.9376740220841853,1
2.244925533032771,0.4053831808404929,-1.028037408464754,1
2.216612029181739,0.4375204473937276,-1.118400794845323,1
2.188298525330707,0.4696577139469624,-1.208764181225891,1
2.159985021479675,0.5017949805001971,-1.29912756760646,1
2.131671517628643,0.5339322470534318,-1.389490953987029,1
2.103358013777612,0.5660695136066667,-1.479854340367597,1
2.07504450992658,0.5982067801599014,-1.570217726748166,1
2.452246046756986,0.3045139275364035,-0.6862134796256466,1
2.423932542905954,0.3366511940896382,-0.7765768660062152,1
2.395619039054922,0.368788460642873,-0.866940252386784,1
2.36730553520389,0.4009257271961077,-0.9573036387673526,1
2.338992031352858,0.4330629937493425,-1.047667025147921,1
2.310678527501826,0.4652002603025772,-1.13803041152849,1
2.282365023650794,0.497337526855812,-1.228393797909058,1
2.254051519799762,0.5294747934090467,-1.318757184289627,1
2.225738015948731,0.5616120599622816,-1.409120570670196,1
2.197424512097699,0.5937493265155163,-1.499483957050765,1
2.169111008246667,0.6258865930687509,-1.589847343431333,1
2.546312545077073,0.3321937404452531,-0.7058430963088139,1
2.517999041226041,0.3643310069984878,-0.7962064826893825,1
2.48968553737501,0.3964682735517226,-0.8865698690699513,1
2.461372033523978,0.4286055401049573,-0.97693325545052,1
2.433058529672946,0.4607428066581921,-1.067296641831089,1
2.404745025821914,0.4928800732114269,-1.157660028211657,1
2.376431521970882,0.5250173397646616,-1.248023414592226,1
2.34811801811985,0.5571546063178963,-1.338386800972795,1
2.319804514268818,0.5892918728711312,-1.428750187353363,1
2.291491010417786,0.6214291394243658,-1.519113573733932,1
2.263177506566754,0.6535664059776005,-1.6094769601145,1
2.64037904339716,0.3598735533541027,-0.7254727129919812,1
2.612065539546129,0.3920108199073374,-0.8158360993725499,1
2.583752035695097,0.4241480864605722,-0.9061994857531186,1
2.555438531844065,0.456285353013807,-0.9965628721336873,1
2.527125027993033,0.4884226195670417,-1.086926258514256,1
2.498811524142001,0.5205598861202765,-1.177289644894824,1
2.470498020290969,0.5526971526735112,-1.267653031275393,1
2.442184516439937,0.5848344192267461,-1.358016417655962,1
2.413871012588905,0.6169716857799807,-1.448379804036531,1
2.385557508737874,0.6491089523332154,-1.538743190417099,1
2.357244004886841,0.6812462188864503,-1.629106576797668,1
