2.787715911482187,0.3155311500779272,-0.305229671592752,1
2.762736631533536,0.3237477144252401,-0.4017103621146041,1
2.737757351584885,0.331964278772553,-0.4981910526364562,1
2.712778071636234,0.3401808431198659,-0.5946717431583083,1
2.687798791687583,0.3483974074671788,-0.6911524336801604,1
2.662819511738933,0.3566139718144917,-0.7876331242020126,1
2.637840231790282,0.3648305361618047,-0.8841138147238647,1
2.612860951841631,0.3730471005091176,-0.9805945052457169,1
2.587881671892981,0.3812636648564305,-1.077075195767569,1
2.56290239194433,0.3894802292037434,-1.173555886289421,1
2.537923111995679,0.3976967935510563,-1.270036576811273,1
2.861027254270774,0.2520433539205315,-0.3296171019127188,1
2.836047974322123,0.2602599182678444,-0.4260977924345709,1
2.811068694373472,0.2684764826151573,-0.522578482956423,1
2.786089414424822,0.2766930469624702,-0.6190591734782751,1
2.761110134476171,0.2849096113097832,-0.7155398640001273,1
2.73613085452752,0.2931261756570961,-0.8120205545219793,1
2.711151574578869,0.301342740004409,-0.9085012450438315,1
2.686172294630218,0.3095593043517219,-1.004981935565683,1
2.661193014681568,0.3177758686990348,-1.101462626087536,1
2.636213734732917,0.3259924330463477,-1.197943316609388,1
2.611234454784266,0.3342089973936606,-1.29442400713124,1
2.934338597059361,0.1885555577631358,-0.3540045322326855,1
2.90935931711071,0.1967721221104487,-0.4504852227545376,1
2.884380037162059,0.2049886864577616,-0.5469659132763898,1
2.859400757213409,0.2132052508050745,-0.6434466037982418,1
2.834421477264758,0.2214218151523875,-0.739927294320094,1
2.809442197316107,0.2296383794997004,-0.836407984841946,1
2.784462917367457,0.2378549438470133,-0.9328886753637983,1
2.759483637418806,0.2460715081943262,-1.02936936588565,1
2.734504357470155,0.2542880725416391,-1.125850056407502,1
2.709525077521505,0.262504636888952,-1.222330746929355,1
2.684545797572853,0.2707212012362649,-1.318811437451207,1
3.007649939847948,0.1250677616057401,-0.3783919625526523,1
2.982670659899298,0.133284325953053,-0.4748726530745044,1
2.957691379950647,0.1415008903003659,-0.5713533435963565,1
2.932712100001996,0.1497174546476789,-0.6678340341182086,1
2.907732820053345,0.1579340189949918,-0.7643147246400607,1
2.882753540104694,0.1661505833423047,-0.8607954151619128,1
2.857774260156044,0.1743671476896176,-0.957276105683765,1
2.832794980207393,0.1825837120369305,-1.053756796205617,1
2.807815700258742,0.1908002763842434,-1.150237486727469,1
2.782836420310092,0.1990168407315563,-1.246718177249321,1
2.757857140361441,0.2072334050788692,-1.343198867771173,1
3.080961282636535,0.06157996544834443,-0.402779392872619,1
3.055982002687885,0.06979652979565731,-0.4992600833944711,1
3.031002722739234,0.07801309414297025,-0.5957407739163232,1
3.006023442790583,0.08622965849028316,-0.6922214644381753,1
2.981044162841933,0.09444622283759607,-0.7887021549600274,1
2.956064882893282,0.102662787184909,-0.8851828454818795,1
2.931085602944631,0.1108793515322219,-0.9816635360037318,1
2.90610632299598,0.1190959158795348,-1.078144226525584,1
2.881127043047329,0.1273124802268477,-1.174624917047436,1
2.856147763098679,0.1355290445741606,-1.271105607569288,1
2.831168483150028,0.1437456089214735,-1.36758629809114,1
3.154272625425123,-0.001907830709051206,-0.4271668231925858,1
3.129293345476472,0.006308733638261677,-0.5236475137144379,1
3.104314065527821,0.01452529798557461,-0.62012820423629,1
3.07933478557917,0.02274186233288755,-0.716608894758142,1
3.05435550563052,0.03095842668020043,-0.8130895852799942,1
3.029376225681869,0.03917499102751332,-0.9095702758018462,1
3.004396945733218,0.04739155537482626,-1.006050966323699,1
2.979417665784568,0.05560811972213919,-1.102531656845551,1
2.954438385835917,0.06382468406945208,-1.199012347367403,1
2.929459105887266,0.07204124841676496,-1.295493037889255,1
2.904479825938616,0.0802578127640779,-1.391973728411107,1
3.22758396821371,-0.06539562686644695,-0.4515542535125525,1
3.202604688265059,-0.05717906251913407,-0.5480349440344047,1
3.177625408316409,-0.04896249817182113,-0.6445156345562568,1
3.152646128367758,-0.0407459338245082,-0.7409963250781089,1
3.127666848419107,-0.03252936947719531,-0.837477015599961,1
3.102687568470456,-0.02431280512988243,-0.9339577061218131,1
3.077708288521805,-0.01609624078256949,-1.030438396643665,1
3.052729008573155,-0.007879676435256555,-1.126919087165517,1
3.027749728624504,0.0003368879120563273,-1.223399777687369,1
3.002770448675853,0.00855345225936921,-1.319880468209222,1
2.977791168727203,0.01677001660668215,-1.416361158731073,1
3.300895311002297,-0.1288834230238426,-0.4759416838325193,1
3.275916031053647,-0.1206668586765297,-0.5724223743543714,1
3.250936751104996,-0.1124502943292168,-0.6689030648762235,1
3.225957471156345,-0.1042337299819039,-0.7653837553980757,1
3.200978191207694,-0.09601716563459101,-0.8618644459199277,1
3.175998911259044,-0.08780060128727807,-0.9583451364417799,1
3.151019631310393,-0.07958403693996519,-1.054825826963632,1
3.126040351361742,-0.07136747259265225,-1.151306517485484,1
3.101061071413092,-0.06315090824533937,-1.247787208007336,1
3.07608179146444,-0.05493434389802643,-1.344267898529188,1
3.05110251151579,-0.04671777955071355,-1.44074858905104,1
3.374206653790885,-0.1923712191812383,-0.500329114152486,1
3.349227373842234,-0.1841546548339253,-0.5968098046743382,1
3.324248093893583,-0.1759380904866125,-0.6932904951961903,1
3.299268813944932,-0.1677215261392996,-0.7897711857180424,1
3.274289533996281,-0.1595049617919866,-0.8862518762398945,1
3.249310254047631,-0.1512883974446737,-0.9827325667617466,1
3.22433097409898,-0.1430718330973608,-1.079213257283599,1
3.199351694150329,-0.1348552687500479,-1.175693947805451,1
3.174372414201679,-0.126638704402735,-1.272174638327303,1
3.149393134253028,-0.1184221400554221,-1.368655328849155,1
3.124413854304377,-0.1102055757081092,-1.465136019371007,1
3.447517996579472,-0.255859015338634,-0.5247165444724528,1
3.422538716630821,-0.2476424509913209,-0.6211972349943049,1
3.39755943668217,-0.239425886644008,-0.7176779255161571,1
3.37258015673352,-0.2312093222966952,-0.8141586160380091,1
3.347600876784869,-0.2229927579493823,-0.9106393065598613,1
3.322621596836218,-0.2147761936020694,-1.007119997081713,1
3.297642316887567,-0.2065596292547565,-1.103600687603566,1
3.272663036938916,-0.1983430649074436,-1.200081378125418,1
3.247683756990266,-0.1901265005601307,-1.29656206864727,1
3.222704477041615,-0.1819099362128177,-1.393042759169122,1
3.197725197092964,-0.1736933718655048,-1.489523449690974,1
3.520829339368059,-0.3193468114960297,-0.5491039747924196,1
3.495850059419408,-0.3111302471487168,-0.6455846653142717,1
3.470870779470757,-0.3029136828014039,-0.7420653558361238,1
3.445891499522107,-0.294697118454091,-0.8385460463579759,1
3.420912219573456,-0.2864805541067781,-0.935026736879828,1
3.395932939624805,-0.278263989759465,-1.03150742740168,1
3.370953659676155,-0.2700474254121522,-1.127988117923532,1
3.345974379727504,-0.2618308610648393,-1.224468808445384,1
3.320995099778853,-0.2536142967175264,-1.320949498967237,1
3.296015819830202,-0.2453977323702135,-1.417430189489088,1
3.271036539881552,-0.2371811680229006,-1.513910880010941,1
