0.7588758755352848,0.50294010437987,0.2525241054752965,1
0.7570887122973675,0.5768426319688915,0.185180045132049,1
0.7553015490594502,0.650745159557913,0.1178359847888016,1
0.753514385821533,0.7246476871469345,0.050491924445554,1
0.7517272225836157,0.798550214735956,-0.01685213589769338,1
0.7499400593456984,0.8724527423249775,-0.08419619624094085,1
0.7481528961077811,0.946355269913999,-0.1515402565841883,1
0.7463657328698637,1.020257797503021,-0.2188843169274358,1
0.7445785696319465,1.094160325092042,-0.2862283772706833,1
0.7427914063940292,1.168062852681063,-0.3535724376139306,1
0.7410042431561119,1.241965380270085,-0.4209164979571781,1
0.7708965611516988,0.4362326571553096,0.179001186585376,1
0.7691093979137815,0.5101351847443311,0.1116571262421285,1
0.7673222346758642,0.5840377123333527,0.04431306589888109,1
0.7655350714379469,0.6579402399223742,-0.02303099444436643,1
0.7637479082000296,0.7318427675113957,-0.09037505478761385,1
0.7619607449621123,0.8057452951004171,-0.1577191151308613,1
0.760173581724195,0.8796478226894386,-0.2250631754741088,1
0.7583864184862777,0.9535503502784601,-0.2924072358173563,1
0.7565992552483605,1.027452877867482,-0.3597512961606038,1
0.7548120920104432,1.101355405456503,-0.4270953565038511,1
0.7530249287725258,1.175257933045525,-0.4944394168470986,1
0.7829172467681127,0.3695252099307491,0.1054782676954555,1
0.7811300835301954,0.4434277375197706,0.03813420735220804,1
0.7793429202922781,0.5173302651087921,-0.02920985299103943,1
0.7775557570543609,0.5912327926978136,-0.09655391333428689,1
0.7757685938164436,0.6651353202868351,-0.1638979736775344,1
0.7739814305785263,0.7390378478758566,-0.2312420340207818,1
0.7721942673406089,0.8129403754648781,-0.2985860943640293,1
0.7704071041026916,0.8868429030538998,-0.3659301547072767,1
0.7686199408647744,0.9607454306429211,-0.4332742150505242,1
0.7668327776268571,1.034647958231943,-0.5006182753937716,1
0.7650456143889398,1.108550485820964,-0.567962335737019,1
0.7949379323845267,0.3028177627061887,0.03195534880553508,1
0.7931507691466094,0.3767202902952101,-0.03538871153771242,1
0.791363605908692,0.4506228178842316,-0.1027327718809598,1
0.7895764426707748,0.5245253454732532,-0.1700768322242074,1
0.7877892794328575,0.5984278730622747,-0.2374208925674548,1
0.7860021161949402,0.6723304006512962,-0.3047649529107022,1
0.7842149529570229,0.7462329282403177,-0.3721090132539497,1
0.7824277897191056,0.8201354558293392,-0.4394530735971971,1
0.7806406264811884,0.8940379834183607,-0.5067971339404447,1
0.778853463243271,0.9679405110073822,-0.574141194283692,1
0.7770663000053537,1.041843038596404,-0.6414852546269394,1
0.8069586180009406,0.2361103154816283,-0.04156757008438541,1
0.8051714547630233,0.3100128430706497,-0.1089116304276329,1
0.803384291525106,0.3839153706596712,-0.1762556907708803,1
0.8015971282871888,0.4578178982486928,-0.2435997511141278,1
0.7998099650492715,0.5317204258377142,-0.3109438114573753,1
0.7980228018113541,0.6056229534267357,-0.3782878718006226,1
0.7962356385734368,0.6795254810157572,-0.4456319321438702,1
0.7944484753355195,0.7534280086047788,-0.5129759924871176,1
0.7926613120976023,0.8273305361938001,-0.5803200528303651,1
0.790874148859685,0.9012330637828216,-0.6476641131736125,1
0.7890869856217677,0.9751355913718431,-0.71500817351686,1
0.8189793036173546,0.1694028682570678,-0.1150904889743059,1
0.8171921403794372,0.2433053958460892,-0.1824345493175533,1
0.8154049771415199,0.3172079234351107,-0.2497786096608008,1
0.8136178139036027,0.3911104510241323,-0.3171226700040483,1
0.8118306506656854,0.4650129786131538,-0.3844667303472957,1
0.8100434874277681,0.5389155062021753,-0.4518107906905431,1
0.8082563241898508,0.6128180337911968,-0.5191548510337907,1
0.8064691609519336,0.6867205613802183,-0.586498911377038,1
0.8046819977140162,0.7606230889692397,-0.6538429717202857,1
0.8028948344760989,0.8345256165582613,-0.7211870320635331,1
0.8011076712381816,0.9084281441472828,-0.7885310924067804,1
0.8309999892337685,0.1026954210325072,-0.1886134078642264,1
0.8292128259958512,0.1765979486215287,-0.2559574682074738,1
0.8274256627579339,0.2505004762105502,-0.3233015285507213,1
0.8256384995200167,0.3244030037995718,-0.3906455888939688,1
0.8238513362820993,0.3983055313885932,-0.4579896492372162,1
0.822064173044182,0.4722080589776147,-0.5253337095804637,1
0.8202770098062647,0.5461105865666362,-0.5926777699237111,1
0.8184898465683474,0.6200131141556577,-0.6600218302669586,1
0.8167026833304302,0.6939156417446791,-0.7273658906102062,1
0.8149155200925129,0.7678181693337006,-0.7947099509534535,1
0.8131283568545956,0.8417206969227222,-0.8620540112967009,1
0.8430206748501824,0.03598797380794683,-0.2621363267541468,1
0.8412335116122651,0.1098905013969683,-0.3294803870973942,1
0.8394463483743478,0.1837930289859898,-0.3968244474406417,1
0.8376591851364306,0.2576955565750113,-0.4641685077838893,1
0.8358720218985133,0.3315980841640328,-0.5315125681271367,1
0.834084858660596,0.4055006117530543,-0.5988566284703841,1
0.8322976954226787,0.4794031393420758,-0.6662006888136317,1
0.8305105321847613,0.5533056669310974,-0.7335447491568791,1
0.8287233689468441,0.6272081945201187,-0.8008888095001266,1
0.8269362057089268,0.7011107221091402,-0.868232869843374,1
0.8251490424710095,0.7750132496981617,-0.9355769301866216,1
0.8550413604665964,-0.03071947341661363,-0.3356592456440671,1
0.8532541972286791,0.04318305417240786,-0.4030033059873146,1
0.8514670339907618,0.1170855817614294,-0.4703473663305621,1
0.8496798707528445,0.190988109350451,-0.5376914266738095,1
0.8478927075149272,0.2648906369394724,-0.605035487017057,1
0.8461055442770099,0.3387931645284939,-0.6723795473603046,1
0.8443183810390926,0.4126956921175154,-0.7397236077035519,1
0.8425312178011753,0.4865982197065369,-0.8070676680467995,1
0.8407440545632581,0.5605007472955583,-0.8744117283900471,1
0.8389568913253408,0.6344032748845798,-0.9417557887332942,1
0.8371697280874234,0.7083058024736013,-1.009099849076542,1
0.8670620460830103,-0.09742692064117409,-0.4091821645339876,1
0.865274882845093,-0.02352439305215259,-0.4765262248772351,1
0.8634877196071757,0.0503781345368689,-0.5438702852204825,1
0.8617005563692585,0.1242806621258905,-0.61121434556373,1
0.8599133931313411,0.1981831897149119,-0.6785584059069775,1
0.8581262298934238,0.2720857173039334,-0.745902466250225,1
0.8563390666555065,0.3459882448929549,-0.8132465265934726,1
0.8545519034175892,0.4198907724819765,-0.88059058693672,1
0.852764740179672,0.4937933000709979,-0.9479346472799673,1
0.8509775769417547,0.5676958276600194,-1.015278707623215,1
0.8491904137038374,0.6415983552490409,-1.082622767966462,1
0.8790827316994242,-0.1641343678657345,-0.4827050834239079,1
0.8772955684615069,-0.09023184027671305,-0.5500491437671554,1
0.8755084052235896,-0.01632931268769156,-0.6173932041104029,1
0.8737212419856724,0.05757321490133005,-0.6847372644536506,1
0.8719340787477551,0.1314757424903515,-0.7520813247968979,1
0.8701469155098378,0.205378270079373,-0.8194253851401453,1
0.8683597522719205,0.2792807976683945,-0.8867694454833929,1
0.8665725890340031,0.353183325257416,-0.9541135058266405,1
0.8647854257960859,0.4270858528464374,-1.021457566169888,1
0.8629982625581686,0.5009883804354589,-1.088801626513135,1
0.8612110993202513,0.5748909080244804,-1.156145686856383,1
