3.034499019615443,0.01067032353866626,-0.1723830701823274,1
2.969147644482364,0.08253633663028334,-0.1961417302988199,1
2.903796269349284,0.1544023497219004,-0.2199003904153124,1
2.838444894216204,0.2262683628135175,-0.2436590505318049,1
2.773093519083125,0.2981343759051346,-0.2674177106482974,1
2.707742143950045,0.3700003889967516,-0.2911763707647899,1
2.642390768816965,0.4418664020883687,-0.3149350308812824,1
2.577039393683885,0.5137324151799858,-0.3386936909977749,1
2.511688018550805,0.5855984282716029,-0.3624523511142674,1
2.446336643417726,0.6574644413632198,-0.3862110112307598,1
2.380985268284646,0.7293304544548369,-0.4099696713472524,1
2.978050939961059,-0.01469181032435307,-0.09383132628541237,1
2.912699564827979,0.05717420276726401,-0.1175899864019049,1
2.8473481896949,0.1290402158588811,-0.1413486465183973,1
2.78199681456182,0.2009062289504982,-0.1651073066348899,1
2.71664543942874,0.2727722420421153,-0.1888659667513824,1
2.65129406429566,0.3446382551337323,-0.2126246268678749,1
2.58594268916258,0.4165042682253494,-0.2363832869843674,1
2.520591314029501,0.4883702813169665,-0.2601419471008599,1
2.455239938896421,0.5602362944085835,-0.2839006072173523,1
2.389888563763341,0.6321023075002006,-0.3076592673338449,1
2.324537188630261,0.7039683205918175,-0.3314179274503374,1
2.921602860306674,-0.0400539441873724,-0.01527958238849733,1
2.856251485173595,0.03181206890424471,-0.03903824250498983,1
2.790900110040515,0.1036780819958618,-0.06279690262148233,1
2.725548734907435,0.1755440950874789,-0.08655556273797484,1
2.660197359774355,0.2474101081790959,-0.1103142228544673,1
2.594845984641275,0.319276121270713,-0.1340728829709598,1
2.529494609508196,0.3911421343623301,-0.1578315430874523,1
2.464143234375116,0.4630081474539471,-0.1815902032039448,1
2.398791859242036,0.5348741605455642,-0.2053488633204373,1
2.333440484108956,0.6067401736371811,-0.2291075234369298,1
2.268089108975877,0.6786061867287982,-0.2528661835534223,1
2.865154780652289,-0.06541607805039173,0.06327216150841775,1
2.79980340551921,0.006449935041225374,0.03951350139192525,1
2.73445203038613,0.07831594813284243,0.01575484127543275,1
2.66910065525305,0.1501819612244595,-0.008003818841059746,1
2.60374928011997,0.2220479743160766,-0.03176247895755227,1
2.538397904986891,0.2939139874076936,-0.05552113907404474,1
2.473046529853811,0.3657800004993108,-0.07927979919053726,1
2.407695154720731,0.4376460135909278,-0.1030384593070298,1
2.342343779587651,0.5095120266825448,-0.1267971194235222,1
2.276992404454572,0.5813780397741619,-0.1505557795400147,1
2.211641029321492,0.6532440528657788,-0.1743144396565072,1
2.808706700997905,-0.09077821191341101,0.1418239054053328,1
2.743355325864825,-0.01891219882179396,0.1180652452888403,1
2.678003950731745,0.0529538142698231,0.09430658517234783,1
2.612652575598665,0.1248198273614402,0.0705479250558553,1
2.547301200465586,0.1966858404530573,0.04678926493936278,1
2.481949825332506,0.2685518535446743,0.02303060482287031,1
2.416598450199426,0.3404178666362914,-0.0007280552936222151,1
2.351247075066346,0.4122838797279085,-0.02448671541011471,1
2.285895699933267,0.4841498928195256,-0.04824537552660718,1
2.220544324800187,0.5560159059111425,-0.07200403564309968,1
2.155192949667108,0.6278819190027596,-0.09576269575959218,1
2.75225862134352,-0.1161403457764303,0.2203756493022479,1
2.686907246210441,-0.04427433268481329,0.1966169891857553,1
2.621555871077361,0.02759168040680376,0.1728583290692628,1
2.556204495944281,0.09945769349842087,0.1490996689527704,1
2.490853120811201,0.1713237065900379,0.1253410088362778,1
2.425501745678121,0.243189719681655,0.1015823487197854,1
2.360150370545041,0.3150557327732721,0.07782368860329283,1
2.294798995411962,0.3869217458648891,0.05406502848680034,1
2.229447620278882,0.4587877589565063,0.03030636837030787,1
2.164096245145803,0.5306537720481233,0.006547708253815371,1
2.098744870012723,0.6025197851397404,-0.01721095186267713,1
2.695810541689136,-0.1415024796394497,0.2989273931991629,1
2.630459166556056,-0.06963646654783262,0.2751687330826704,1
2.565107791422976,0.002229546543784433,0.2514100729661779,1
2.499756416289896,0.07409555963540154,0.2276514128496855,1
2.434405041156816,0.1459615727270186,0.2038927527331929,1
2.369053666023737,0.2178275858186356,0.1801340926167005,1
2.303702290890657,0.2896935989102528,0.1563754325002079,1
2.238350915757577,0.3615596120018698,0.1326167723837154,1
2.172999540624498,0.4334256250934869,0.108858112267223,1
2.107648165491418,0.5052916381851039,0.08509945215073048,1
2.042296790358338,0.5771576512767209,0.06134079203423798,1
2.639362462034751,-0.166864613502469,0.3774791370960779,1
2.574011086901671,-0.09499860041085195,0.3537204769795854,1
2.508659711768591,-0.0231325873192349,0.3299618168630929,1
2.443308336635512,0.04873342577238221,0.3062031567466005,1
2.377956961502432,0.1205994388639993,0.282444496630108,1
2.312605586369352,0.1924654519556163,0.2586858365136154,1
2.247254211236272,0.2643314650472334,0.2349271763971229,1
2.181902836103192,0.3361974781388505,0.2111685162806304,1
2.116551460970113,0.4080634912304676,0.187409856164138,1
2.051200085837033,0.4799295043220846,0.1636511960476455,1
1.985848710703953,0.5517955174137015,0.1398925359311529,1
2.582914382380366,-0.1922267473654883,0.456030880992993,1
2.517563007247286,-0.1203607342738713,0.4322722208765005,1
2.452211632114207,-0.04849472118225423,0.408513560760008,1
2.386860256981127,0.02337129190936288,0.3847549006435155,1
2.321508881848047,0.09523730500097993,0.3609962405270231,1
2.256157506714967,0.167103318092597,0.3372375804105305,1
2.190806131581887,0.2389693311842141,0.313478920294038,1
2.125454756448808,0.3108353442758311,0.2897202601775455,1
2.060103381315728,0.3827013573674483,0.2659616000610531,1
1.994752006182648,0.4545673704590653,0.2422029399445606,1
1.929400631049569,0.5264333835506823,0.218444279828068,1
2.526466302725981,-0.2175888812285077,0.534582624889908,1
2.461114927592902,-0.1457228681368906,0.5108239647734155,1
2.395763552459822,-0.07385685504527356,0.487065304656923,1
2.330412177326742,-0.001990841953656453,0.4633066445404305,1
2.265060802193662,0.06987517113796063,0.4395479844239381,1
2.199709427060582,0.1417411842295777,0.4157893243074455,1
2.134358051927503,0.2136071973211948,0.392030664190953,1
2.069006676794423,0.2854732104128119,0.3682720040744605,1
2.003655301661344,0.357339223504429,0.3445133439579681,1
1.938303926528264,0.429205236596046,0.3207546838414755,1
1.872952551395184,0.501071249687663,0.296996023724983,1
2.470018223071597,-0.242951015091527,0.613134368786823,1
2.404666847938517,-0.1710850019999099,0.5893757086703305,1
2.339315472805437,-0.09921898890829289,0.565617048553838,1
2.273964097672358,-0.02735297581667578,0.5418583884373455,1
2.208612722539278,0.04451303727494133,0.518099728320853,1
2.143261347406198,0.1163790503665584,0.4943410682043605,1
2.077909972273118,0.1882450634581755,0.470582408087868,1
2.012558597140039,0.2601110765497925,0.4468237479713755,1
1.947207222006959,0.3319770896414097,0.4230650878548831,1
1.881855846873879,0.4038431027330266,0.3993064277383905,1
1.816504471740799,0.4757091158246436,0.375547767621898,1
