2.325837284540137,-0.1340357101819717,-0.2201043978415894,1
2.263674304596638,-0.09233634026254767,-0.2864137220190167,1
2.201511324653139,-0.05063697034312359,-0.3527230461964441,1
2.13934834470964,-0.008937600423699565,-0.4190323703738714,1
2.07718536476614,0.03276176949572446,-0.4853416945512988,1
2.015022384822641,0.07446113941514848,-0.5516510187287261,1
1.952859404879142,0.1161605093345726,-0.6179603429061535,1
1.890696424935643,0.1578598792539966,-0.6842696670835809,1
1.828533444992144,0.1995592491734206,-0.7505789912610081,1
1.766370465048645,0.2412586190928446,-0.8168883154384355,1
1.704207485105145,0.2829579890122687,-0.8831976396158628,1
2.394191866951045,-0.1464999936021859,-0.2920230512094814,1
2.332028887007546,-0.1048006236827618,-0.3583323753869087,1
2.269865907064047,-0.06310125376333781,-0.4246416995643361,1
2.207702927120547,-0.02140188384391373,-0.4909510237417635,1
2.145539947177048,0.0202974860755103,-0.5572603479191908,1
2.083376967233549,0.06199685599493432,-0.6235696720966181,1
2.02121398729005,0.1036962259143584,-0.6898789962740455,1
1.959051007346551,0.1453955958337824,-0.7561883204514729,1
1.896888027403052,0.1870949657532064,-0.8224976446289002,1
1.834725047459552,0.2287943356726305,-0.8888069688063275,1
1.772562067516053,0.2704937055920545,-0.9551162929837548,1
2.462546449361953,-0.1589642770224,-0.3639417045773733,1
2.400383469418454,-0.117264907102976,-0.4302510287548007,1
2.338220489474955,-0.07556553718355191,-0.496560352932228,1
2.276057509531455,-0.03386616726412789,-0.5628696771096554,1
2.213894529587956,0.007833202655296134,-0.6291790012870827,1
2.151731549644457,0.04953257257472016,-0.6954883254645101,1
2.089568569700958,0.09123194249414424,-0.7617976496419374,1
2.027405589757458,0.1329313124135683,-0.8281069738193648,1
1.965242609813959,0.1746306823329923,-0.8944162979967921,1
1.90307962987046,0.2163300522524163,-0.9607256221742195,1
1.840916649926961,0.2580294221718404,-1.027034946351647,1
2.53090103177286,-0.1714285604426142,-0.4358603579452653,1
2.468738051829361,-0.1297291905231902,-0.5021696821226926,1
2.406575071885862,-0.08802982060376607,-0.56847900630012,1
2.344412091942363,-0.04633045068434205,-0.6347883304775473,1
2.282249111998864,-0.004631080764918027,-0.7010976546549748,1
2.220086132055365,0.037068289154506,-0.7674069788324021,1
2.157923152111865,0.07876765907393007,-0.8337163030098295,1
2.095760172168366,0.1204670289933541,-0.9000256271872568,1
2.033597192224867,0.1621663989127781,-0.9663349513646841,1
1.971434212281368,0.2038657688322021,-1.032644275542111,1
1.909271232337868,0.2455651387516262,-1.098953599719539,1
2.599255614183768,-0.1838928438628283,-0.5077790113131573,1
2.537092634240269,-0.1421934739434043,-0.5740883354905846,1
2.47492965429677,-0.1004941040239802,-0.640397659668012,1
2.412766674353271,-0.05879473410455621,-0.7067069838454393,1
2.350603694409771,-0.01709536418513219,-0.7730163080228666,1
2.288440714466272,0.02460400573429183,-0.839325632200294,1
2.226277734522773,0.06630337565371591,-0.9056349563777214,1
2.164114754579274,0.1080027455731399,-0.9719442805551487,1
2.101951774635775,0.149702115492564,-1.038253604732576,1
2.039788794692276,0.191401485411988,-1.104562928910003,1
1.977625814748776,0.2331008553314121,-1.170872253087431,1
2.667610196594676,-0.1963571272830425,-0.5796976646810492,1
2.605447216651177,-0.1546577573636185,-0.6460069888584766,1
2.543284236707678,-0.1129583874441944,-0.7123163130359039,1
2.481121256764178,-0.07125901752477037,-0.7786256372133313,1
2.418958276820679,-0.02955964760534635,-0.8449349613907586,1
2.35679529687718,0.01213972231407767,-0.911244285568186,1
2.294632316933681,0.05383909223350175,-0.9775536097456133,1
2.232469336990182,0.09553846215292577,-1.043862933923041,1
2.170306357046683,0.1372378320723498,-1.110172258100468,1
2.108143377103183,0.1789372019917738,-1.176481582277895,1
2.045980397159684,0.2206365719111979,-1.242790906455323,1
2.735964779005584,-0.2088214107032567,-0.6516163180489413,1
2.673801799062085,-0.1671220407838326,-0.7179256422263687,1
2.611638819118586,-0.1254226708644086,-0.784234966403796,1
2.549475839175086,-0.08372330094498454,-0.8505442905812234,1
2.487312859231587,-0.04202393102556051,-0.9168536147586507,1
2.425149879288088,-0.0003245611061364895,-0.983162938936078,1
2.362986899344588,0.04137480881328759,-1.049472263113505,1
2.300823919401089,0.08307417873271161,-1.115781587290933,1
2.23866093945759,0.1247735486521356,-1.18209091146836,1
2.176497959514091,0.1664729185715597,-1.248400235645787,1
2.114334979570592,0.2081722884909837,-1.314709559823215,1
2.804319361416491,-0.2212856941234708,-0.7235349714168332,1
2.742156381472992,-0.1795863242040467,-0.7898442955942605,1
2.679993401529493,-0.1378869542846227,-0.8561536197716879,1
2.617830421585994,-0.0961875843651987,-0.9224629439491152,1
2.555667441642495,-0.05448821444577467,-0.9887722681265426,1
2.493504461698996,-0.01278884452635065,-1.05508159230397,1
2.431341481755496,0.02891052539307343,-1.121390916481397,1
2.369178501811997,0.07060989531249745,-1.187700240658824,1
2.307015521868498,0.1123092652319215,-1.254009564836252,1
2.244852541924999,0.1540086351513455,-1.320318889013679,1
2.182689561981499,0.1957080050707696,-1.386628213191107,1
2.872673943827399,-0.2337499775436849,-0.7954536247847253,1
2.8105109638839,-0.1920506076242609,-0.8617629489621526,1
2.748347983940401,-0.1503512377048369,-0.92807227313958,1
2.686185003996902,-0.1086518677854129,-0.9943815973170073,1
2.624022024053402,-0.06695249786598884,-1.060690921494434,1
2.561859044109903,-0.02525312794656481,-1.127000245671862,1
2.499696064166404,0.01644624197285927,-1.193309569849289,1
2.437533084222905,0.05814561189228329,-1.259618894026717,1
2.375370104279406,0.09984498181170731,-1.325928218204144,1
2.313207124335907,0.1415443517311313,-1.392237542381571,1
2.251044144392407,0.1832437216505554,-1.458546866558999,1
2.941028526238307,-0.2462142609638991,-0.8673722781526171,1
2.878865546294808,-0.2045148910444751,-0.9336816023300444,1
2.816702566351309,-0.162815521125051,-0.9999909265074718,1
2.754539586407809,-0.121116151205627,-1.066300250684899,1
2.69237660646431,-0.079416781286203,-1.132609574862326,1
2.630213626520811,-0.03771741136677897,-1.198918899039754,1
2.568050646577312,0.003981958552645104,-1.265228223217181,1
2.505887666633813,0.04568132847206913,-1.331537547394609,1
2.443724686690314,0.08738069839149315,-1.397846871572036,1
2.381561706746814,0.1290800683109172,-1.464156195749463,1
2.319398726803315,0.1707794382303413,-1.53046551992689,1
3.009383108649215,-0.2586785443841133,-0.9392909315205091,1
2.947220128705716,-0.2169791744646892,-1.005600255697936,1
2.885057148762216,-0.1752798045452652,-1.071909579875364,1
2.822894168818717,-0.1335804346258412,-1.138218904052791,1
2.760731188875218,-0.09188106470641716,-1.204528228230218,1
2.698568208931719,-0.05018169478699314,-1.270837552407646,1
2.636405228988219,-0.008482324867569058,-1.337146876585073,1
2.57424224904472,0.03321704505185497,-1.4034562007625,1
2.512079269101221,0.07491641497127899,-1.469765524939928,1
2.449916289157722,0.116615784890703,-1.536074849117355,1
2.387753309214223,0.1583151548101271,-1.602384173294783,1
