2.960112120991254,0.1774066252120594,0.03911700629494147,1
2.907812914303401,0.1779653143342841,-0.04611491757332455,1
2.855513707615547,0.1785240034565089,-0.1313468414415906,1
2.803214500927694,0.1790826925787337,-0.2165787653098566,1
2.75091529423984,0.1796413817009586,-0.3018106891781226,1
2.698616087551987,0.1802000708231833,-0.3870426130463887,1
2.646316880864134,0.1807587599454081,-0.4722745369146547,1
2.59401767417628,0.1813174490676329,-0.5575064607829208,1
2.541718467488427,0.1818761381898578,-0.6427383846511868,1
2.489419260800573,0.1824348273120825,-0.7279703085194528,1
2.43712005411272,0.1829935164343073,-0.8132022323877189,1
2.897161416579674,0.1097367047735173,0.07730065046266471,1
2.844862209891821,0.1102953938957421,-0.007931273405601319,1
2.792563003203968,0.110854083017967,-0.09316319727386735,1
2.740263796516114,0.1114127721401917,-0.1783951211421334,1
2.68796458982826,0.1119714612624165,-0.2636270450103994,1
2.635665383140407,0.1125301503846413,-0.3488589688786654,1
2.583366176452554,0.1130888395068662,-0.4340908927469315,1
2.5310669697647,0.1136475286290909,-0.5193228166151975,1
2.478767763076847,0.1142062177513157,-0.6045547404834636,1
2.426468556388993,0.1147649068735405,-0.6897866643517295,1
2.37416934970114,0.1153235959957654,-0.7750185882199957,1
2.834210712168094,0.04206678433497535,0.115484294630388,1
2.781911505480241,0.04262547345720019,0.03025237076212192,1
2.729612298792388,0.04318416257942498,-0.05497955310614411,1
2.677313092104534,0.04374285170164977,-0.1402114769744101,1
2.625013885416681,0.04430154082387455,-0.2254434008426761,1
2.572714678728827,0.04486022994609934,-0.3106753247109422,1
2.520415472040974,0.04541891906832413,-0.3959072485792082,1
2.468116265353121,0.04597760819054897,-0.4811391724474743,1
2.415817058665267,0.04653629731277376,-0.5663710963157403,1
2.363517851977413,0.04709498643499854,-0.6516030201840063,1
2.31121864528956,0.04765367555722338,-0.7368349440522725,1
2.771260007756515,-0.02560313610356668,0.1536679387981112,1
2.718960801068661,-0.02504444698134184,0.06843601492984516,1
2.666661594380808,-0.02448575785911705,-0.01679590893842087,1
2.614362387692954,-0.02392706873689227,-0.1020278328066869,1
2.562063181005101,-0.02336837961466748,-0.1872597566749529,1
2.509763974317248,-0.02280969049244269,-0.2724916805432189,1
2.457464767629394,-0.0222510013702179,-0.357723604411485,1
2.405165560941541,-0.02169231224799306,-0.442955528279751,1
2.352866354253687,-0.02113362312576827,-0.5281874521480171,1
2.300567147565834,-0.02057493400354349,-0.613419376016283,1
2.248267940877981,-0.02001624488131865,-0.6986512998845492,1
2.708309303344935,-0.09327305654210866,0.1918515829658344,1
2.656010096657082,-0.09271436741988387,0.1066196590975684,1
2.603710889969228,-0.09215567829765908,0.02138773522930237,1
2.551411683281375,-0.0915969891754343,-0.06384418863896366,1
2.499112476593521,-0.09103830005320945,-0.1490761125072297,1
2.446813269905668,-0.09047961093098467,-0.2343080363754957,1
2.394514063217815,-0.08992092180875988,-0.3195399602437617,1
2.342214856529961,-0.08936223268653509,-0.4047718841120278,1
2.289915649842107,-0.08880354356431031,-0.4900038079802939,1
2.237616443154254,-0.08824485444208546,-0.5752357318485598,1
2.185317236466401,-0.08768616531986068,-0.660467655716826,1
2.645358598933355,-0.1609429769806506,0.2300352271335576,1
2.593059392245502,-0.1603842878584258,0.1448033032652916,1
2.540760185557648,-0.1598255987362011,0.05957137939702559,1
2.488460978869795,-0.1592669096139763,-0.02566054447124044,1
2.436161772181941,-0.1587082204917514,-0.1108924683395064,1
2.383862565494088,-0.1581495313695266,-0.1961243922077725,1
2.331563358806235,-0.1575908422473019,-0.2813563160760385,1
2.279264152118381,-0.1570321531250771,-0.3665882399443046,1
2.226964945430528,-0.1564734640028523,-0.4518201638125706,1
2.174665738742674,-0.1559147748806274,-0.5370520876808366,1
2.122366532054821,-0.1553560857584027,-0.6222840115491026,1
2.582407894521775,-0.2286128974191926,0.2682188713012809,1
2.530108687833922,-0.2280542082969679,0.1829869474330149,1
2.477809481146068,-0.227495519174743,0.09775502356474886,1
2.425510274458215,-0.2269368300525184,0.01252309969648283,1
2.373211067770362,-0.2263781409302935,-0.07270882417178318,1
2.320911861082508,-0.2258194518080687,-0.1579407480400492,1
2.268612654394655,-0.2252607626858439,-0.2431726719083153,1
2.216313447706801,-0.2247020735636191,-0.3284045957765813,1
2.164014241018948,-0.2241433844413943,-0.4136365196448474,1
2.111715034331095,-0.2235846953191694,-0.4988684435131133,1
2.059415827643241,-0.2230260061969447,-0.5841003673813794,1
2.519457190110196,-0.2962828178577346,0.3064025154690042,1
2.467157983422342,-0.2957241287355099,0.2211705916007381,1
2.414858776734488,-0.2951654396132851,0.1359386677324721,1
2.362559570046635,-0.2946067504910603,0.05070674386420607,1
2.310260363358782,-0.2940480613688355,-0.03452518000405994,1
2.257961156670929,-0.2934893722466106,-0.119757103872326,1
2.205661949983075,-0.2929306831243859,-0.2049890277405921,1
2.153362743295222,-0.292371994002161,-0.2902209516088581,1
2.101063536607368,-0.2918133048799363,-0.3754528754771241,1
2.048764329919515,-0.2912546157577114,-0.4606847993453901,1
1.996465123231661,-0.2906959266354867,-0.5459167232136561,1
2.456506485698616,-0.3639527382962767,0.3445861596367275,1
2.404207279010762,-0.3633940491740519,0.2593542357684614,1
2.351908072322909,-0.362835360051827,0.1741223119001954,1
2.299608865635056,-0.3622766709296022,0.08889038803192931,1
2.247309658947202,-0.3617179818073774,0.003658464163663305,1
2.195010452259349,-0.3611592926851526,-0.08157345970460275,1
2.142711245571495,-0.3606006035629278,-0.1668053835728688,1
2.090412038883642,-0.360041914440703,-0.2520373074411348,1
2.038112832195789,-0.3594832253184783,-0.3372692313094009,1
1.985813625507935,-0.3589245361962535,-0.4225011551776668,1
1.933514418820081,-0.3583658470740287,-0.5077330790459329,1
2.393555781287036,-0.4316226587348187,0.3827698038044506,1
2.341256574599182,-0.4310639696125939,0.2975378799361845,1
2.288957367911329,-0.430505280490369,0.2123059560679185,1
2.236658161223476,-0.4299465913681442,0.1270740321996525,1
2.184358954535622,-0.4293879022459194,0.04184210833138649,1
2.132059747847769,-0.4288292131236947,-0.04338981553687957,1
2.079760541159915,-0.4282705240014699,-0.1286217394051456,1
2.027461334472062,-0.4277118348792451,-0.2138536632734117,1
1.975162127784209,-0.4271531457570203,-0.2990855871416778,1
1.922862921096355,-0.4265944566347955,-0.3843175110099437,1
1.870563714408502,-0.4260357675125707,-0.4695494348782097,1
2.330605076875456,-0.4992925791733606,0.4209534479721738,1
2.278305870187603,-0.4987338900511358,0.3357215241039078,1
2.226006663499749,-0.4981752009289109,0.2504896002356417,1
2.173707456811896,-0.4976165118066861,0.1652576763673757,1
2.121408250124043,-0.4970578226844614,0.08002575249910973,1
2.069109043436189,-0.4964991335622366,-0.005206171369156326,1
2.016809836748336,-0.4959404444400118,-0.09043809523742238,1
1.964510630060482,-0.495381755317787,-0.1756700191056884,1
1.912211423372629,-0.4948230661955622,-0.2609019429739545,1
1.859912216684775,-0.4942643770733374,-0.3461338668422205,1
1.807613009996922,-0.4937056879511126,-0.4313657907104865,1
