2.661239589949412,-0.03785334151103448,-0.5346278464447731,1
2.638103482713299,0.01493501731365071,-0.4529081443249334,1
2.614967375477185,0.06772337613833587,-0.3711884422050937,1
2.591831268241072,0.1205117349630211,-0.289468740085254,1
2.568695161004958,0.1733000937877062,-0.2077490379654143,1
2.545559053768844,0.2260884526123914,-0.1260293358455746,1
2.522422946532731,0.2788768114370766,-0.04430963372573485,1
2.499286839296617,0.3316651702617618,0.0374100683941048,1
2.476150732060503,0.3844535290864469,0.1191297705139445,1
2.45301462482439,0.4372418879111321,0.2008494726337842,1
2.429878517588276,0.4900302467358174,0.2825691747536239,1
2.567486959279897,-0.02751619169380343,-0.5678481350678652,1
2.544350852043783,0.02527216713088171,-0.4861284329480254,1
2.521214744807669,0.0780605259555669,-0.4044087308281857,1
2.498078637571556,0.1308488847802521,-0.322689028708346,1
2.474942530335442,0.1836372436049373,-0.2409693265885064,1
2.451806423099329,0.2364256024296225,-0.1592496244686667,1
2.428670315863215,0.2892139612543076,-0.07752992234882691,1
2.405534208627102,0.3420023200789928,0.004189779771012786,1
2.382398101390988,0.394790678903678,0.08590948189085248,1
2.359261994154874,0.4475790377283632,0.1676291840106922,1
2.336125886918761,0.5003673965530484,0.2493488861305319,1
2.473734328610381,-0.01717904187657243,-0.6010684236909573,1
2.450598221374268,0.03560931694811276,-0.5193487215711176,1
2.427462114138154,0.08839767577279795,-0.4376290194512779,1
2.40432600690204,0.1411860345974831,-0.355909317331438,1
2.381189899665927,0.1939743934221683,-0.2741896152115985,1
2.358053792429813,0.2467627522468535,-0.1924699130917587,1
2.334917685193699,0.2995511110715386,-0.110750210971919,1
2.311781577957586,0.3523394698962238,-0.02903050885207933,1
2.288645470721472,0.405127828720909,0.05268919326776036,1
2.265509363485359,0.4579161875455942,0.1344088953876001,1
2.242373256249245,0.5107045463702793,0.2161285975074398,1
2.379981697940865,-0.006841892059341381,-0.6342887123140494,1
2.356845590704752,0.04594646676534381,-0.5525690101942096,1
2.333709483468638,0.09873482559002897,-0.4708493080743699,1
2.310573376232525,0.1515231844147142,-0.3891296059545302,1
2.287437268996411,0.2043115432393993,-0.3074099038346905,1
2.264301161760298,0.2570999020640845,-0.2256902017148508,1
2.241165054524184,0.3098882608887697,-0.143970499595011,1
2.218028947288071,0.3626766197134549,-0.0622507974751714,1
2.194892840051957,0.41546497853814,0.01946890464466836,1
2.171756732815843,0.4682533373628252,0.1011886067645081,1
2.14862062557973,0.5210416961875104,0.1829083088843478,1
2.28622906727135,0.003495257757889669,-0.6675090009371414,1
2.263092960035237,0.05628361658257483,-0.5857892988173017,1
2.239956852799123,0.10907197540726,-0.504069596697462,1
2.216820745563009,0.1618603342319452,-0.4223498945776222,1
2.193684638326896,0.2146486930566304,-0.3406301924577825,1
2.170548531090782,0.2674370518813156,-0.2589104903379429,1
2.147412423854669,0.3202254107060007,-0.1771907882181031,1
2.124276316618555,0.3730137695306859,-0.09547108609826346,1
2.101140209382442,0.4258021283553711,-0.01375138397842376,1
2.078004102146328,0.4785904871800562,0.06796831814141593,1
2.054867994910214,0.5313788460047415,0.1496880202612556,1
2.192476436601835,0.01383240757512066,-0.7007292895602335,1
2.169340329365721,0.06662076639980585,-0.6190095874403937,1
2.146204222129608,0.119409125224491,-0.537289885320554,1
2.123068114893494,0.1721974840491762,-0.4555701832007143,1
2.09993200765738,0.2249858428738614,-0.3738504810808746,1
2.076795900421267,0.2777742016985466,-0.2921307789610349,1
2.053659793185153,0.3305625605232318,-0.2104110768411952,1
2.030523685949039,0.3833509193479169,-0.1286913747213555,1
2.007387578712926,0.4361392781726021,-0.04697167260151577,1
1.984251471476812,0.4889276369972873,0.03474802951832393,1
1.961115364240699,0.5417159958219724,0.1164677316381636,1
2.098723805932319,0.02416955739235171,-0.7339495781833255,1
2.075587698696205,0.0769579162170369,-0.6522298760634858,1
2.052451591460092,0.1297462750417221,-0.5705101739436461,1
2.029315484223978,0.1825346338664073,-0.4887904718238064,1
2.006179376987864,0.2353229926910925,-0.4070707697039667,1
1.983043269751751,0.2881113515157776,-0.325351067584127,1
1.959907162515637,0.3408997103404628,-0.2436313654642872,1
1.936771055279524,0.393688069165148,-0.1619116633444476,1
1.91363494804341,0.4464764279898331,-0.08019196122460789,1
1.890498840807297,0.4992647868145183,0.001527740895231805,1
1.867362733571183,0.5520531456392035,0.0832474430150715,1
2.004971175262804,0.03450670720958277,-0.7671698668064176,1
1.98183506802669,0.08729506603426795,-0.6854501646865779,1
1.958698960790576,0.1400834248589531,-0.6037304625667382,1
1.935562853554463,0.1928717836836383,-0.5220107604468984,1
1.912426746318349,0.2456601425083235,-0.4402910583270587,1
1.889290639082235,0.2984485013330087,-0.358571356207219,1
1.866154531846122,0.3512368601576938,-0.2768516540873793,1
1.843018424610008,0.404025218982379,-0.1951319519675397,1
1.819882317373895,0.4568135778070642,-0.1134122498477,1
1.796746210137781,0.5096019366317492,-0.03169254772786026,1
1.773610102901668,0.5623902954564346,0.05002715439197949,1
1.911218544593288,0.04484385702681376,-0.8003901554295098,1
1.888082437357174,0.09763221585149898,-0.7186704533096699,1
1.864946330121061,0.1504205746761841,-0.6369507511898302,1
1.841810222884947,0.2032089335008693,-0.5552310490699905,1
1.818674115648834,0.2559972923255545,-0.4735113469501508,1
1.79553800841272,0.3087856511502397,-0.3917916448303111,1
1.772401901176607,0.3615740099749249,-0.3100719427104713,1
1.749265793940493,0.4143623687996101,-0.2283522405906317,1
1.726129686704379,0.4671507276242952,-0.146632538470792,1
1.702993579468266,0.5199390864489803,-0.06491283635095232,1
1.679857472232152,0.5727274452736655,0.01680686576888737,1
1.817465913923773,0.05518100684404481,-0.8336104440526017,1
1.794329806687659,0.10796936566873,-0.751890741932762,1
1.771193699451545,0.1607577244934152,-0.6701710398129223,1
1.748057592215432,0.2135460833181004,-0.5884513376930826,1
1.724921484979318,0.2663344421427856,-0.5067316355732429,1
1.701785377743204,0.3191228009674707,-0.4250119334534032,1
1.678649270507091,0.3719111597921559,-0.3432922313335633,1
1.655513163270977,0.4246995186168411,-0.2615725292137238,1
1.632377056034864,0.4774878774415263,-0.179852827093884,1
1.60924094879875,0.5302762362662115,-0.09813312497404433,1
1.586104841562637,0.5830645950908966,-0.01641342285420463,1
1.723713283254257,0.06551815666127586,-0.8668307326756938,1
1.700577176018143,0.1183065154859611,-0.7851110305558541,1
1.67744106878203,0.1710948743106462,-0.7033913284360144,1
1.654304961545916,0.2238832331353314,-0.6216716263161746,1
1.631168854309803,0.2766715919600166,-0.5399519241963349,1
1.608032747073689,0.3294599507847017,-0.4582322220764952,1
1.584896639837575,0.3822483096093869,-0.3765125199566555,1
1.561760532601462,0.4350366684340721,-0.2947928178368158,1
1.538624425365348,0.4878250272587573,-0.2130731157169761,1
1.515488318129235,0.5406133860834423,-0.1313534135971364,1
1.492352210893121,0.5934017449081277,-0.0496337114772967,1
