1.309013980895917,0.5328113859131953,-0.5815848576210293,1
1.339803297085223,0.5790461433703562,-0.6647375197039261,1
1.370592613274529,0.6252809008275171,-0.747890181786823,1
1.401381929463836,0.671515658284678,-0.8310428438697198,1
1.432171245653142,0.7177504157418387,-0.9141955059526167,1
1.462960561842448,0.7639851731989995,-0.9973481680355135,1
1.493749878031755,0.8102199306561606,-1.08050083011841,1
1.524539194221061,0.8564546881133213,-1.163653492201307,1
1.555328510410368,0.9026894455704821,-1.246806154284204,1
1.586117826599674,0.948924203027643,-1.329958816367101,1
1.61690714278898,0.9951589604848037,-1.413111478449997,1
1.334604489341219,0.4446093754995509,-0.6211516522410422,1
1.365393805530525,0.4908441329567118,-0.704304314323939,1
1.396183121719831,0.5370788904138726,-0.7874569764068359,1
1.426972437909138,0.5833136478710335,-0.8706096384897327,1
1.457761754098444,0.6295484053281943,-0.9537623005726296,1
1.48855107028775,0.6757831627853551,-1.036914962655526,1
1.519340386477057,0.7220179202425161,-1.120067624738423,1
1.550129702666363,0.7682526776996769,-1.20322028682132,1
1.58091901885567,0.8144874351568376,-1.286372948904217,1
1.611708335044976,0.8607221926139985,-1.369525610987114,1
1.642497651234282,0.9069569500711594,-1.45267827307001,1
1.360194997786521,0.3564073650859064,-0.6607184468610551,1
1.390984313975827,0.4026421225430673,-0.7438711089439518,1
1.421773630165133,0.4488768800002281,-0.8270237710268487,1
1.45256294635444,0.495111637457389,-0.9101764331097455,1
1.483352262543746,0.5413463949145498,-0.9933290951926423,1
1.514141578733053,0.5875811523717107,-1.076481757275539,1
1.544930894922359,0.6338159098288716,-1.159634419358436,1
1.575720211111665,0.6800506672860325,-1.242787081441333,1
1.606509527300972,0.7262854247431931,-1.325939743524229,1
1.637298843490278,0.772520182200354,-1.409092405607126,1
1.668088159679584,0.8187549396575149,-1.492245067690023,1
1.385785506231823,0.2682053546722619,-0.7002852414810679,1
1.416574822421129,0.3144401121294228,-0.7834379035639647,1
1.447364138610435,0.3606748695865836,-0.8665905656468615,1
1.478153454799742,0.4069096270437444,-0.9497432277297584,1
1.508942770989048,0.4531443845009053,-1.032895889812655,1
1.539732087178355,0.4993791419580662,-1.116048551895552,1
1.570521403367661,0.5456138994152271,-1.199201213978449,1
1.601310719556967,0.591848656872388,-1.282353876061346,1
1.632100035746274,0.6380834143295486,-1.365506538144242,1
1.66288935193558,0.6843181717867095,-1.448659200227139,1
1.693678668124886,0.7305529292438704,-1.531811862310036,1
1.411376014677125,0.1800033442586175,-0.7398520361010806,1
1.442165330866431,0.2262381017157784,-0.8230046981839775,1
1.472954647055738,0.2724728591729392,-0.9061573602668743,1
1.503743963245044,0.3187076166301001,-0.9893100223497712,1
1.53453327943435,0.3649423740872609,-1.072462684432668,1
1.565322595623657,0.4111771315444217,-1.155615346515565,1
1.596111911812963,0.4574118890015826,-1.238768008598462,1
1.626901228002269,0.5036466464587435,-1.321920670681358,1
1.657690544191576,0.5498814039159043,-1.405073332764255,1
1.688479860380882,0.5961161613730651,-1.488225994847152,1
1.719269176570188,0.6423509188302259,-1.571378656930049,1
1.436966523122427,0.09180133384497308,-0.7794188307210935,1
1.467755839311733,0.1380360913021339,-0.8625714928039904,1
1.49854515550104,0.1842708487592947,-0.9457241548868872,1
1.529334471690346,0.2305056062164556,-1.028876816969784,1
1.560123787879652,0.2767403636736164,-1.112029479052681,1
1.590913104068959,0.3229751211307773,-1.195182141135577,1
1.621702420258265,0.3692098785879382,-1.278334803218474,1
1.652491736447572,0.415444636045099,-1.361487465301371,1
1.683281052636878,0.4616793935022598,-1.444640127384268,1
1.714070368826184,0.5079141509594207,-1.527792789467165,1
1.74485968501549,0.5541489084165814,-1.610945451550061,1
1.462557031567729,0.003599323431328516,-0.8189856253411064,1
1.493346347757035,0.04983408088848934,-0.9021382874240031,1
1.524135663946342,0.09606883834565016,-0.9852909495069,1
1.554924980135648,0.142303595802811,-1.068443611589797,1
1.585714296324954,0.1885383532599719,-1.151596273672693,1
1.616503612514261,0.2347731107171327,-1.234748935755591,1
1.647292928703567,0.2810078681742936,-1.317901597838487,1
1.678082244892874,0.3272426256314545,-1.401054259921384,1
1.70887156108218,0.3734773830886153,-1.484206922004281,1
1.739660877271486,0.4197121405457761,-1.567359584087178,1
1.770450193460793,0.4659468980029369,-1.650512246170075,1
1.488147540013031,-0.08460268698231588,-0.8585524199611191,1
1.518936856202338,-0.038367929525155,-0.9417050820440159,1
1.549726172391644,0.007866827932005771,-1.024857744126913,1
1.58051548858095,0.05410158538916665,-1.10801040620981,1
1.611304804770257,0.1003363428463275,-1.191163068292706,1
1.642094120959563,0.1465711003034883,-1.274315730375603,1
1.672883437148869,0.1928058577606492,-1.3574683924585,1
1.703672753338176,0.2390406152178101,-1.440621054541397,1
1.734462069527482,0.2852753726749709,-1.523773716624294,1
1.765251385716788,0.3315101301321317,-1.606926378707191,1
1.796040701906095,0.3777448875892925,-1.690079040790087,1
1.513738048458333,-0.1728046973959604,-0.898119214581132,1
1.54452736464764,-0.1265699399387995,-0.9812718766640288,1
1.575316680836946,-0.08033518248163873,-1.064424538746926,1
1.606105997026252,-0.03410042502447785,-1.147577200829822,1
1.636895313215559,0.01213433243268297,-1.230729862912719,1
1.667684629404865,0.05836908988984379,-1.313882524995616,1
1.698473945594171,0.1046038473470047,-1.397035187078513,1
1.729263261783478,0.1508386048041656,-1.48018784916141,1
1.760052577972784,0.1970733622613264,-1.563340511244307,1
1.79084189416209,0.2433081197184872,-1.646493173327203,1
1.821631210351397,0.289542877175648,-1.7296458354101,1
1.539328556903635,-0.2610067078096048,-0.9376860092011449,1
1.570117873092942,-0.214771950352444,-1.020838671284042,1
1.600907189282248,-0.1685371928952831,-1.103991333366938,1
1.631696505471554,-0.1223024354381222,-1.187143995449835,1
1.662485821660861,-0.07606767798096137,-1.270296657532732,1
1.693275137850167,-0.0298329205238006,-1.353449319615629,1
1.724064454039473,0.01640183693336034,-1.436601981698526,1
1.75485377022878,0.06263659439052116,-1.519754643781423,1
1.785643086418086,0.108871351847682,-1.602907305864319,1
1.816432402607392,0.1551061093048428,-1.686059967947216,1
1.847221718796699,0.2013408667620036,-1.769212630030113,1
1.564919065348937,-0.3492087182232491,-0.9772528038211576,1
1.595708381538244,-0.3029739607660882,-1.060405465904054,1
1.62649769772755,-0.2567392033089276,-1.143558127986951,1
1.657287013916856,-0.2105044458517667,-1.226710790069848,1
1.688076330106163,-0.1642696883946059,-1.309863452152745,1
1.718865646295469,-0.118034930937445,-1.393016114235642,1
1.749654962484775,-0.07180017348028411,-1.476168776318539,1
1.780444278674082,-0.02556541602312323,-1.559321438401435,1
1.811233594863388,0.02066934143403759,-1.642474100484332,1
1.842022911052694,0.06690409889119842,-1.725626762567229,1
1.872812227242001,0.1131388563483592,-1.808779424650126,1
