2.901284284688491,0.4195666324854442,-0.5505755338153803,1
2.80421465877,0.3955426716410743,-0.5499949914892561,1
2.70714503285151,0.3715187107967043,-0.549414449163132,1
2.610075406933019,0.3474947499523344,-0.5488339068370078,1
2.513005781014528,0.3234707891079645,-0.5482533645108837,1
2.415936155096037,0.2994468282635946,-0.5476728221847597,1
2.318866529177546,0.2754228674192247,-0.5470922798586355,1
2.221796903259055,0.2513989065748548,-0.5465117375325114,1
2.124727277340564,0.2273749457304849,-0.5459311952063872,1
2.027657651422073,0.203350984886115,-0.5453506528802631,1
1.930588025503582,0.1793270240417451,-0.5447701105541389,1
2.897337154196274,0.4331228408143947,-0.6495737629743885,1
2.800267528277784,0.4090988799700248,-0.6489932206482644,1
2.703197902359292,0.3850749191256548,-0.6484126783221402,1
2.606128276440802,0.361050958281285,-0.6478321359960161,1
2.509058650522311,0.3370269974369151,-0.6472515936698919,1
2.41198902460382,0.3130030365925451,-0.6466710513437678,1
2.314919398685329,0.2889790757481752,-0.6460905090176436,1
2.217849772766838,0.2649551149038053,-0.6455099666915195,1
2.120780146848347,0.2409311540594354,-0.6449294243653954,1
2.023710520929856,0.2169071932150655,-0.6443488820392712,1
1.926640895011365,0.1928832323706955,-0.6437683397131471,1
2.893390023704058,0.4466790491433452,-0.7485719921333968,1
2.796320397785566,0.4226550882989753,-0.7479914498072726,1
2.699250771867076,0.3986311274546054,-0.7474109074811485,1
2.602181145948585,0.3746071666102355,-0.7468303651550243,1
2.505111520030094,0.3505832057658655,-0.7462498228289002,1
2.408041894111603,0.3265592449214957,-0.745669280502776,1
2.310972268193112,0.3025352840771257,-0.7450887381766519,1
2.213902642274621,0.2785113232327558,-0.7445081958505277,1
2.11683301635613,0.2544873623883859,-0.7439276535244036,1
2.019763390437639,0.230463401544016,-0.7433471111982795,1
1.922693764519148,0.2064394406996461,-0.7427665688721553,1
2.88944289321184,0.4602352574722957,-0.8475702212924051,1
2.79237326729335,0.4362112966279258,-0.8469896789662809,1
2.695303641374859,0.4121873357835559,-0.8464091366401568,1
2.598234015456368,0.388163374939186,-0.8458285943140326,1
2.501164389537877,0.3641394140948161,-0.8452480519879085,1
2.404094763619386,0.3401154532504462,-0.8446675096617843,1
2.307025137700895,0.3160914924060763,-0.8440869673356602,1
2.209955511782404,0.2920675315617063,-0.843506425009536,1
2.112885885863913,0.2680435707173364,-0.842925882683412,1
2.015816259945423,0.2440196098729665,-0.8423453403572877,1
1.918746634026931,0.2199956490285966,-0.8417647980311637,1
2.885495762719624,0.4737914658012462,-0.9465684504514132,1
2.788426136801132,0.4497675049568763,-0.9459879081252891,1
2.691356510882642,0.4257435441125064,-0.945407365799165,1
2.594286884964151,0.4017195832681365,-0.9448268234730408,1
2.49721725904566,0.3776956224237666,-0.9442462811469167,1
2.400147633127169,0.3536716615793967,-0.9436657388207925,1
2.303078007208678,0.3296477007350267,-0.9430851964946684,1
2.206008381290187,0.3056237398906568,-0.9425046541685442,1
2.108938755371697,0.281599779046287,-0.9419241118424201,1
2.011869129453205,0.2575758182019171,-0.9413435695162959,1
1.914799503534714,0.2335518573575471,-0.9407630271901718,1
2.881548632227406,0.4873476741301968,-1.045566679610421,1
2.784479006308916,0.4633237132858268,-1.044986137284297,1
2.687409380390425,0.4392997524414569,-1.044405594958173,1
2.590339754471934,0.415275791597087,-1.043825052632049,1
2.493270128553443,0.3912518307527171,-1.043244510305925,1
2.396200502634952,0.3672278699083472,-1.042663967979801,1
2.299130876716461,0.3432039090639772,-1.042083425653676,1
2.20206125079797,0.3191799482196074,-1.041502883327552,1
2.104991624879479,0.2951559873752375,-1.040922341001428,1
2.007921998960989,0.2711320265308675,-1.040341798675304,1
1.910852373042498,0.2471080656864976,-1.03976125634918,1
2.87760150173519,0.5009038824591473,-1.14456490876943,1
2.780531875816699,0.4768799216147773,-1.143984366443305,1
2.683462249898208,0.4528559607704075,-1.143403824117181,1
2.586392623979717,0.4288319999260375,-1.142823281791057,1
2.489322998061226,0.4048080390816676,-1.142242739464933,1
2.392253372142735,0.3807840782372978,-1.141662197138809,1
2.295183746224244,0.3567601173929278,-1.141081654812685,1
2.198114120305753,0.3327361565485579,-1.14050111248656,1
2.101044494387263,0.308712195704188,-1.139920570160436,1
2.003974868468771,0.2846882348598181,-1.139340027834312,1
1.90690524255028,0.2606642740154481,-1.138759485508188,1
2.873654371242973,0.5144600907880978,-1.243563137928438,1
2.776584745324482,0.4904361299437279,-1.242982595602314,1
2.679515119405991,0.466412169099358,-1.242402053276189,1
2.5824454934875,0.442388208254988,-1.241821510950065,1
2.485375867569009,0.4183642474106181,-1.241240968623941,1
2.388306241650518,0.3943402865662483,-1.240660426297817,1
2.291236615732027,0.3703163257218783,-1.240079883971693,1
2.194166989813537,0.3462923648775084,-1.239499341645569,1
2.097097363895045,0.3222684040331385,-1.238918799319445,1
2.000027737976555,0.2982444431887686,-1.238338256993321,1
1.902958112058063,0.2742204823443987,-1.237757714667196,1
2.869707240750756,0.5280162991170483,-1.342561367087446,1
2.772637614832265,0.5039923382726783,-1.341980824761322,1
2.675567988913774,0.4799683774283084,-1.341400282435198,1
2.578498362995283,0.4559444165839385,-1.340819740109073,1
2.481428737076792,0.4319204557395686,-1.340239197782949,1
2.384359111158301,0.4078964948951987,-1.339658655456825,1
2.28728948523981,0.3838725340508288,-1.339078113130701,1
2.190219859321319,0.3598485732064589,-1.338497570804577,1
2.093150233402829,0.335824612362089,-1.337917028478453,1
1.996080607484338,0.3118006515177191,-1.337336486152329,1
1.899010981565846,0.2877766906733492,-1.336755943826204,1
2.865760110258539,0.5415725074459988,-1.441559596246454,1
2.768690484340048,0.5175485466016289,-1.44097905392033,1
2.671620858421557,0.493524585757259,-1.440398511594206,1
2.574551232503066,0.4695006249128891,-1.439817969268082,1
2.477481606584575,0.4454766640685192,-1.439237426941958,1
2.380411980666084,0.4214527032241493,-1.438656884615833,1
2.283342354747593,0.3974287423797793,-1.438076342289709,1
2.186272728829102,0.3734047815354095,-1.437495799963585,1
2.089203102910612,0.3493808206910395,-1.436915257637461,1
1.992133476992121,0.3253568598466696,-1.436334715311337,1
1.89506385107363,0.3013328990022996,-1.435754172985213,1
2.861812979766322,0.5551287157749494,-1.540557825405462,1
2.764743353847831,0.5311047549305794,-1.539977283079338,1
2.66767372792934,0.5070807940862095,-1.539396740753214,1
2.570604102010849,0.4830568332418396,-1.53881619842709,1
2.473534476092358,0.4590328723974697,-1.538235656100966,1
2.376464850173867,0.4350089115530998,-1.537655113774842,1
2.279395224255377,0.4109849507087299,-1.537074571448717,1
2.182325598336885,0.3869609898643599,-1.536494029122593,1
2.085255972418395,0.36293702901999,-1.535913486796469,1
1.988186346499904,0.3389130681756202,-1.535332944470345,1
1.891116720581413,0.3148891073312502,-1.534752402144221,1
