2.359941086032464,0.5699715494493309,0.2850521534612606,1
2.373581404372851,0.6054702225161024,0.1925654737388735,1
2.387221722713237,0.6409688955828738,0.1000787940164865,1
2.400862041053623,0.6764675686496455,0.007592114294099422,1
2.414502359394009,0.711966241716417,-0.08489456542828758,1
2.428142677734396,0.7474649147831884,-0.1773812451506746,1
2.441782996074782,0.78296358784996,-0.2698679248730618,1
2.455423314415168,0.8184622609167316,-0.3623546045954488,1
2.469063632755554,0.853960933983503,-0.4548412843178358,1
2.482703951095941,0.8894596070502745,-0.5473279640402228,1
2.496344269436327,0.924958280117046,-0.6398146437626098,1
2.286188232882469,0.5112803600784966,0.2516476486382262,1
2.299828551222856,0.5467790331452681,0.1591609689158391,1
2.313468869563242,0.5822777062120397,0.06667428919345211,1
2.327109187903628,0.6177763792788111,-0.02581239052893494,1
2.340749506244014,0.6532750523455826,-0.1182990702513219,1
2.354389824584401,0.6887737254123543,-0.210785749973709,1
2.368030142924787,0.7242723984791257,-0.3032724296960961,1
2.381670461265173,0.7597710715458972,-0.3957591094184831,1
2.395310779605559,0.7952697446126686,-0.4882457891408701,1
2.408951097945946,0.8307684176794403,-0.5807324688632571,1
2.422591416286332,0.8662670907462118,-0.6732191485856441,1
2.212435379732475,0.4525891707076624,0.2182431438151918,1
2.226075698072861,0.4880878437744339,0.1257564640928047,1
2.239716016413247,0.5235865168412054,0.03326978437041775,1
2.253356334753633,0.559085189907977,-0.05921689535196931,1
2.266996653094019,0.5945838629747484,-0.1517035750743563,1
2.280636971434405,0.6300825360415199,-0.2441902547967434,1
2.294277289774792,0.6655812091082914,-0.3366769345191305,1
2.307917608115178,0.701079882175063,-0.4291636142415175,1
2.321557926455564,0.7365785552418345,-0.5216502939639045,1
2.33519824479595,0.7720772283086059,-0.6141369736862915,1
2.348838563136336,0.8075759013753774,-0.7066236534086786,1
2.138682526582479,0.3938979813368281,0.1848386389921574,1
2.152322844922865,0.4293966544035996,0.09235195926977041,1
2.165963163263251,0.4648953274703711,-0.0001347204526166157,1
2.179603481603638,0.5003940005371426,-0.09262140017500367,1
2.193243799944024,0.5358926736039141,-0.1851080798973907,1
2.20688411828441,0.5713913466706857,-0.2775947596197778,1
2.220524436624796,0.6068900197374572,-0.3700814393421649,1
2.234164754965183,0.6423886928042286,-0.4625681190645519,1
2.247805073305569,0.6778873658710002,-0.5550547987869389,1
2.261445391645955,0.7133860389377717,-0.6475414785093259,1
2.275085709986342,0.7488847120045432,-0.7400281582317129,1
2.064929673432484,0.3352067919659938,0.1514341341691231,1
2.07856999177287,0.3707054650327654,0.05894745444673605,1
2.092210310113257,0.4062041380995368,-0.03353922527565098,1
2.105850628453643,0.4417028111663084,-0.126025904998038,1
2.119490946794029,0.4772014842330798,-0.218512584720425,1
2.133131265134415,0.5127001572998514,-0.3109992644428121,1
2.146771583474802,0.548198830366623,-0.4034859441651992,1
2.160411901815188,0.5836975034333944,-0.4959726238875862,1
2.174052220155574,0.6191961765001659,-0.5884593036099732,1
2.18769253849596,0.6546948495669374,-0.6809459833323602,1
2.201332856836346,0.6901935226337088,-0.7734326630547473,1
1.991176820282489,0.2765156025951596,0.1180296293460888,1
2.004817138622875,0.3120142756619311,0.02554294962370171,1
2.018457456963262,0.3475129487287026,-0.06694373009868529,1
2.032097775303648,0.3830116217954741,-0.1594304098210724,1
2.045738093644034,0.4185102948622456,-0.2519170895434594,1
2.05937841198442,0.4540089679290171,-0.3444037692658464,1
2.073018730324806,0.4895076409957887,-0.4368904489882335,1
2.086659048665193,0.5250063140625602,-0.5293771287106206,1
2.100299367005579,0.5605049871293317,-0.6218638084330075,1
2.113939685345965,0.5960036601961032,-0.7143504881553947,1
2.127580003686351,0.6315023332628746,-0.8068371678777816,1
1.917423967132494,0.2178244132243252,0.08462512452305435,1
1.93106428547288,0.2533230862910967,-0.007861555199332654,1
1.944704603813266,0.2888217593578682,-0.1003482349217197,1
1.958344922153652,0.3243204324246398,-0.1928349146441068,1
1.971985240494039,0.3598191054914113,-0.2853215943664937,1
1.985625558834425,0.3953177785581828,-0.3778082740888808,1
1.999265877174811,0.4308164516249543,-0.470294953811268,1
2.012906195515197,0.4663151246917258,-0.562781633533655,1
2.026546513855584,0.5018137977584973,-0.6552683132560421,1
2.04018683219597,0.5373124708252688,-0.747754992978429,1
2.053827150536356,0.5728111438920402,-0.8402416727008161,1
1.843671113982499,0.1591332238534909,0.05122061970001998,1
1.857311432322885,0.1946318969202624,-0.04126606002236702,1
1.870951750663271,0.230130569987034,-0.1337527397447541,1
1.884592069003657,0.2656292430538055,-0.2262394194671411,1
1.898232387344044,0.301127916120577,-0.3187260991895281,1
1.91187270568443,0.3366265891873485,-0.4112127789119152,1
1.925513024024816,0.37212526225412,-0.5036994586343023,1
1.939153342365202,0.4076239353208915,-0.5961861383566893,1
1.952793660705588,0.443122608387663,-0.6886728180790763,1
1.966433979045975,0.4786212814544346,-0.7811594978014634,1
1.980074297386361,0.5141199545212061,-0.8736461775238503,1
1.769918260832504,0.1004420344826567,0.01781611487698562,1
1.78355857917289,0.1359407075494282,-0.07467056484540138,1
1.797198897513276,0.1714393806161997,-0.1671572445677884,1
1.810839215853662,0.2069380536829712,-0.2596439242901755,1
1.824479534194049,0.2424367267497428,-0.3521306040125625,1
1.838119852534435,0.2779353998165143,-0.4446172837349496,1
1.851760170874821,0.3134340728832858,-0.5371039634573367,1
1.865400489215207,0.3489327459500573,-0.6295906431797236,1
1.879040807555593,0.3844314190168288,-0.7220773229021108,1
1.89268112589598,0.4199300920836003,-0.8145640026244977,1
1.906321444236366,0.4554287651503718,-0.9070506823468848,1
1.696165407682509,0.04175084511182248,-0.01558838994604875,1
1.709805726022895,0.07724951817859393,-0.1080750696684357,1
1.723446044363281,0.1127481912453654,-0.2005617493908227,1
1.737086362703667,0.148246864312137,-0.2930484291132098,1
1.750726681044053,0.1837455373789085,-0.3855351088355968,1
1.76436699938444,0.21924421044568,-0.4780217885579838,1
1.778007317724826,0.2547428835124516,-0.5705084682803709,1
1.791647636065212,0.290241556579223,-0.6629951480027582,1
1.805287954405598,0.3257402296459945,-0.755481827725145,1
1.818928272745985,0.361238902712766,-0.8479685074475322,1
1.832568591086371,0.3967375757795375,-0.940455187169919,1
1.622412554532513,-0.01694034425901181,-0.04899289476908311,1
1.6360528728729,0.01855832880775965,-0.1414795744914701,1
1.649693191213286,0.05405700187453111,-0.2339662542138571,1
1.663333509553672,0.08955567494130268,-0.3264529339362442,1
1.676973827894058,0.1250543480080742,-0.4189396136586312,1
1.690614146234445,0.1605530210748457,-0.5114262933810183,1
1.704254464574831,0.1960516941416173,-0.6039129731034054,1
1.717894782915217,0.2315503672083887,-0.6963996528257924,1
1.731535101255603,0.2670490402751602,-0.7888863325481795,1
1.745175419595989,0.3025477133419318,-0.8813730122705664,1
1.758815737936376,0.3380463864087032,-0.9738596919929535,1
