0.9193465643840016,0.02397548556314893,-0.1116376611673832,1
0.8543267553614798,-0.009426584494518664,-0.04339745197560636,1
0.7893069463389581,-0.04282865455218626,0.02484275721617046,1
0.7242871373164363,-0.07623072460985386,0.0930829664079473,1
0.6592673282939147,-0.1096327946675215,0.1613231755997241,1
0.5942475192713929,-0.1430348647251891,0.2295633847915009,1
0.5292277102488711,-0.1764369347828567,0.2978035939832778,1
0.4642079012263493,-0.2098390048405243,0.3660438031750546,1
0.3991880922038276,-0.2432410748981919,0.4342840123668313,1
0.3341682831813058,-0.2766431449558595,0.5025242215586082,1
0.2691484741587841,-0.3100452150135271,0.5707644307503851,1
0.8501196946569081,0.01301196922823306,-0.1829639663945716,1
0.7850998856343863,-0.02039010082943454,-0.1147237572027948,1
0.7200800766118646,-0.05379217088710214,-0.04648354801101794,1
0.6550602675893428,-0.08719424094476974,0.02175666118075889,1
0.590040458566821,-0.1205963110024373,0.0899968703725357,1
0.5250206495442993,-0.1539983810601049,0.1582370795643125,1
0.4600008405217775,-0.1874004511177725,0.2264772887560894,1
0.3949810314992557,-0.2208025211754401,0.2947174979478662,1
0.329961222476734,-0.2542045912331077,0.3629577071396429,1
0.2649414134542122,-0.2876066612907753,0.4311979163314198,1
0.1999216044316905,-0.3210087313484429,0.4994381255231967,1
0.7808928249298145,0.002048452893317176,-0.25429027162176,1
0.7158730159072927,-0.03135361716435042,-0.1860500624299832,1
0.6508532068847709,-0.06475568722201802,-0.1178098532382063,1
0.5858333978622491,-0.09815775727968562,-0.0495696440464295,1
0.5208135888397274,-0.1315598273373532,0.01867056514534732,1
0.4557937798172056,-0.1649618973950208,0.08691077433712413,1
0.3907739707946839,-0.1983639674526884,0.155150983528901,1
0.3257541617721621,-0.231766037510356,0.2233911927206778,1
0.2607343527496403,-0.2651681075680236,0.2916314019124546,1
0.1957145437271185,-0.2985701776256912,0.3598716111042314,1
0.1306947347045969,-0.3319722476833588,0.4281118202960082,1
0.7116659552027208,-0.008915063441598647,-0.3256165768489484,1
0.646646146180199,-0.0423171334992663,-0.2573763676571716,1
0.5816263371576773,-0.0757192035569339,-0.1891361584653948,1
0.5166065281351555,-0.1091212736146015,-0.1208959492736179,1
0.4515867191126337,-0.1425233436722691,-0.05265574008184112,1
0.386566910090112,-0.1759254137299367,0.01558446910993569,1
0.3215471010675902,-0.2093274837876043,0.08382467830171256,1
0.2565272920450684,-0.2427295538452719,0.1520648874934894,1
0.1915074830225467,-0.2761316239029395,0.2203050966852662,1
0.1264876740000249,-0.3095336939606071,0.2885453058770431,1
0.0614678649775032,-0.3429357640182747,0.3567855150688198,1
0.6424390854756272,-0.01987857977651453,-0.3969428820761368,1
0.5774192764531054,-0.05328064983418213,-0.3287026728843599,1
0.5123994674305837,-0.08668271989184972,-0.2604624636925831,1
0.4473796584080619,-0.1200847899495173,-0.1922222545008063,1
0.3823598493855401,-0.1534868600071849,-0.1239820453090295,1
0.3173400403630184,-0.1868889300648525,-0.05574183611725267,1
0.2523202313404966,-0.2202910001225202,0.0124983730745242,1
0.1873004223179749,-0.2536930701801878,0.08073858226630101,1
0.1222806132954531,-0.2870951402378553,0.1489787914580778,1
0.05726080427293131,-0.3204972102955229,0.2172190006498547,1
-0.007759004749590376,-0.3538992803531905,0.2854592098416314,1
0.5732122157485336,-0.03084209611143041,-0.4682691873033252,1
0.5081924067260118,-0.064244166169098,-0.4000289781115484,1
0.4431725977034902,-0.0976462362267656,-0.3317887689197715,1
0.3781527886809684,-0.1310483062844332,-0.2635485597279947,1
0.3131329796584467,-0.1644503763421008,-0.1953083505362179,1
0.2481131706359248,-0.1978524463997684,-0.1270681413444411,1
0.183093361613403,-0.2312545164574361,-0.05882793215266421,1
0.1180735525908812,-0.2646565865151037,0.009412277039112599,1
0.05305374356835954,-0.2980586565727713,0.07765248623088941,1
-0.01196606545416226,-0.3314607266304389,0.1458926954226663,1
-0.07698587447668395,-0.3648627966881064,0.214132904614443,1
0.50398534602144,-0.04180561244634629,-0.5395954925305136,1
0.4389655369989182,-0.07520768250401388,-0.4713552833387369,1
0.3739457279763965,-0.1086097525616815,-0.40311507414696,1
0.3089259189538747,-0.1420118226193491,-0.3348748649551831,1
0.2439061099313529,-0.1754138926770167,-0.2666346557634064,1
0.1788863009088311,-0.2088159627346842,-0.1983944465716296,1
0.1138664918863093,-0.2422180327923518,-0.1301542373798527,1
0.04884668286378754,-0.2756201028500194,-0.06191402818807587,1
-0.01617312615873415,-0.309022172907687,0.006326181003700942,1
-0.08119293518125584,-0.3424242429653546,0.07456639019547781,1
-0.1462127442037776,-0.3758263130230222,0.1428065993872546,1
0.4347584762943464,-0.05276912878126211,-0.6109217977577021,1
0.3697386672718246,-0.08617119883892971,-0.5426815885659252,1
0.3047188582493029,-0.1195732688965973,-0.4744413793741483,1
0.2396990492267811,-0.152975338954265,-0.4062011701823716,1
0.1746792402042593,-0.1863774090119325,-0.3379609609905947,1
0.1096594311817376,-0.2197794790696001,-0.2697207517988179,1
0.04463962215921577,-0.2531815491272678,-0.201480542607041,1
-0.02038018686330592,-0.2865836191849354,-0.1332403334152642,1
-0.08539999588582772,-0.3199856892426029,-0.06500012422348742,1
-0.1504198049083495,-0.3533877593002705,0.003240084968289453,1
-0.2154396139308711,-0.3867898293579381,0.07148029416006621,1
0.3655316065672528,-0.06373264511617799,-0.6822481029848905,1
0.300511797544731,-0.09713471517384559,-0.6140078937931135,1
0.2354919885222093,-0.1305367852315132,-0.5457676846013367,1
0.1704721794996875,-0.1639388552891808,-0.4775274754095599,1
0.1054523704771658,-0.1973409253468484,-0.4092872662177831,1
0.04043256145464399,-0.230742995404516,-0.3410470570260062,1
-0.02458724756787781,-0.2641450654621836,-0.2728068478342294,1
-0.08960705659039961,-0.2975471355198512,-0.2045666386424526,1
-0.1546268656129214,-0.3309492055775188,-0.1363264294506758,1
-0.2196466746354432,-0.3643512756351864,-0.06808622025889891,1
-0.2846664836579648,-0.397753345692854,0.0001539889328778521,1
0.2963047368401592,-0.07469616145109387,-0.7535744082120789,1
0.2312849278176374,-0.1080982315087615,-0.685334199020302,1
0.1662651187951157,-0.1415003015664291,-0.6170939898285251,1
0.1012453097725939,-0.1749023716240967,-0.5488537806367483,1
0.03622550075007211,-0.2083044416817643,-0.4806135714449715,1
-0.02879430827244958,-0.2417065117394319,-0.4123733622531947,1
-0.09381411729497127,-0.2751085817970995,-0.3441331530614178,1
-0.1588339263174931,-0.3085106518547671,-0.275892943869641,1
-0.2238537353400149,-0.3419127219124347,-0.2076527346778642,1
-0.2888735443625366,-0.3753147919701023,-0.1394125254860873,1
-0.3538933533850585,-0.4087168620277699,-0.07117231629431056,1
0.2270778671130656,-0.08565967778600975,-0.8249007134392673,1
0.1620580580905438,-0.1190617478436773,-0.7566605042474904,1
0.09703824906802214,-0.1524638179013449,-0.6884202950557136,1
0.03201844004550033,-0.1858658879590125,-0.6201800858639367,1
-0.03300136897702136,-0.2192679580166801,-0.5519398766721599,1
-0.09802117799954316,-0.2526700280743477,-0.4836996674803831,1
-0.163040987022065,-0.2860720981320153,-0.4154594582886062,1
-0.2280607960445868,-0.3194741681896829,-0.3472192490968294,1
-0.2930806050671083,-0.3528762382473505,-0.2789790399050526,1
-0.3581004140896301,-0.3862783083050181,-0.2107388307132757,1
-0.4231202231121519,-0.4196803783626857,-0.142498621521499,1
