1.460087631759492,0.463893286611872,-0.2490107442998832,1
1.499774844199769,0.5457696995701361,-0.2904978286733133,1
1.539462056640046,0.6276461125284002,-0.3319849130467434,1
1.579149269080324,0.7095225254866643,-0.3734719974201734,1
1.618836481520601,0.7913989384449284,-0.4149590817936034,1
1.658523693960878,0.8732753514031923,-0.4564461661670335,1
1.698210906401156,0.9551517643614567,-0.4979332505404636,1
1.737898118841433,1.037028177319721,-0.5394203349138935,1
1.77758533128171,1.118904590277985,-0.5809074192873236,1
1.817272543721988,1.200781003236249,-0.6223945036607537,1
1.856959756162265,1.282657416194513,-0.6638815880341836,1
1.53039402793035,0.4077190692697322,-0.2926165691798736,1
1.570081240370627,0.4895954822279963,-0.3341036535533035,1
1.609768452810905,0.5714718951862603,-0.3755907379267336,1
1.649455665251182,0.6533483081445244,-0.4170778223001637,1
1.689142877691459,0.7352247211027885,-0.4585649066735937,1
1.728830090131737,0.8171011340610526,-0.5000519910470237,1
1.768517302572014,0.8989775470193166,-0.5415390754204538,1
1.808204515012291,0.9808539599775807,-0.5830261597938838,1
1.847891727452569,1.062730372935845,-0.6245132441673139,1
1.887578939892846,1.144606785894109,-0.666000328540744,1
1.927266152333123,1.226483198852373,-0.7074874129141739,1
1.600700424101208,0.3515448519275924,-0.3362223940598638,1
1.640387636541485,0.4334212648858565,-0.3777094784332938,1
1.680074848981763,0.5152976778441205,-0.4191965628067239,1
1.71976206142204,0.5971740908023846,-0.460683647180154,1
1.759449273862317,0.6790505037606487,-0.5021707315535839,1
1.799136486302595,0.7609269167189128,-0.543657815927014,1
1.838823698742872,0.8428033296771769,-0.5851449003004441,1
1.878510911183149,0.9246797426354409,-0.626631984673874,1
1.918198123623427,1.006556155593705,-0.6681190690473041,1
1.957885336063704,1.088432568551969,-0.7096061534207342,1
1.997572548503981,1.170308981510233,-0.7510932377941641,1
1.671006820272066,0.2953706345854525,-0.3798282189398541,1
1.710694032712344,0.3772470475437166,-0.4213153033132842,1
1.750381245152621,0.4591234605019807,-0.4628023876867141,1
1.790068457592898,0.5409998734602448,-0.5042894720601442,1
1.829755670033176,0.6228762864185089,-0.5457765564335743,1
1.869442882473453,0.7047526993767729,-0.5872636408070042,1
1.90913009491373,0.7866291123350371,-0.6287507251804344,1
1.948817307354008,0.8685055252933012,-0.6702378095538644,1
1.988504519794285,0.9503819382515653,-0.7117248939272944,1
2.028191732234562,1.032258351209829,-0.7532119783007245,1
2.06787894467484,1.114134764168093,-0.7946990626741545,1
1.741313216442924,0.2391964172433127,-0.4234340438198443,1
1.781000428883202,0.3210728302015768,-0.4649211281932744,1
1.820687641323479,0.4029492431598409,-0.5064082125667044,1
1.860374853763756,0.484825656118105,-0.5478952969401345,1
1.900062066204034,0.5667020690763691,-0.5893823813135645,1
1.939749278644311,0.648578482034633,-0.6308694656869945,1
1.979436491084588,0.7304548949928972,-0.6723565500604246,1
2.019123703524866,0.8123313079511614,-0.7138436344338547,1
2.058810915965143,0.8942077209094255,-0.7553307188072846,1
2.09849812840542,0.9760841338676896,-0.7968178031807147,1
2.138185340845698,1.057960546825954,-0.8383048875541448,1
1.811619612613782,0.1830221999011729,-0.4670398686998346,1
1.85130682505406,0.264898612859437,-0.5085269530732646,1
1.890994037494337,0.3467750258177011,-0.5500140374466946,1
1.930681249934615,0.4286514387759652,-0.5915011218201247,1
1.970368462374892,0.5105278517342293,-0.6329882061935548,1
2.010055674815169,0.5924042646924932,-0.6744752905669847,1
2.049742887255447,0.6742806776507574,-0.7159623749404148,1
2.089430099695724,0.7561570906090214,-0.7574494593138449,1
2.129117312136001,0.8380335035672855,-0.798936543687275,1
2.168804524576279,0.9199099165255495,-0.8404236280607049,1
2.208491737016556,1.001786329483814,-0.881910712434135,1
1.881926008784641,0.1268479825590331,-0.5106456935798249,1
1.921613221224918,0.2087243955172972,-0.5521327779532549,1
1.961300433665195,0.2906008084755612,-0.593619862326685,1
2.000987646105473,0.3724772214338253,-0.635106946700115,1
2.04067485854575,0.4543536343920894,-0.6765940310735451,1
2.080362070986027,0.5362300473503534,-0.7180811154469751,1
2.120049283426305,0.6181064603086175,-0.7595681998204051,1
2.159736495866582,0.6999828732668816,-0.8010552841938352,1
2.199423708306859,0.7818592862251457,-0.8425423685672653,1
2.239110920747137,0.8637356991834098,-0.8840294529406953,1
2.278798133187414,0.9456121121416738,-0.9255165373141253,1
1.952232404955499,0.07067376521689323,-0.5542515184598151,1
1.991919617395776,0.1525501781751573,-0.5957386028332451,1
2.031606829836054,0.2344265911334214,-0.6372256872066752,1
2.071294042276331,0.3163030040916855,-0.6787127715801052,1
2.110981254716608,0.3981794170499496,-0.7201998559535353,1
2.150668467156886,0.4800558300082136,-0.7616869403269653,1
2.190355679597163,0.5619322429664777,-0.8031740247003953,1
2.23004289203744,0.6438086559247418,-0.8446611090738254,1
2.269730104477718,0.7256850688830059,-0.8861481934472555,1
2.309417316917995,0.80756148184127,-0.9276352778206856,1
2.349104529358272,0.8894378947995341,-0.9691223621941155,1
2.022538801126357,0.01449954787475344,-0.5978573433398053,1
2.062226013566634,0.09637596083301753,-0.6393444277132354,1
2.101913226006912,0.1782523737912816,-0.6808315120866655,1
2.141600438447189,0.2601287867495457,-0.7223185964600956,1
2.181287650887466,0.3420051997078098,-0.7638056808335256,1
2.220974863327744,0.4238816126660738,-0.8052927652069556,1
2.260662075768021,0.5057580256243379,-0.8467798495803857,1
2.300349288208298,0.587634438582602,-0.8882669339538156,1
2.340036500648576,0.6695108515408661,-0.9297540183272457,1
2.379723713088853,0.7513872644991302,-0.9712411027006758,1
2.41941092552913,0.8332636774573943,-1.012728187074106,1
2.092845197297215,-0.0416746694673864,-0.6414631682197957,1
2.132532409737493,0.04020174349087768,-0.6829502525932257,1
2.17221962217777,0.1220781564491418,-0.7244373369666558,1
2.211906834618047,0.2039545694074059,-0.7659244213400858,1
2.251594047058325,0.2858309823656699,-0.8074115057135158,1
2.291281259498602,0.3677073953239339,-0.8488985900869458,1
2.330968471938879,0.4495838082821981,-0.890385674460376,1
2.370655684379157,0.5314602212404621,-0.9318727588338059,1
2.410342896819434,0.6133366341987262,-0.973359843207236,1
2.450030109259711,0.6952130471569903,-1.014846927580666,1
2.489717321699989,0.7770894601152544,-1.056334011954096,1
2.163151593468073,-0.09784888680952619,-0.6850689930997859,1
2.202838805908351,-0.0159724738512621,-0.7265560774732159,1
2.242526018348628,0.06590393910700199,-0.768043161846646,1
2.282213230788905,0.1477803520652661,-0.8095302462200761,1
2.321900443229183,0.2296567650235302,-0.851017330593506,1
2.36158765566946,0.3115331779817941,-0.8925044149669361,1
2.401274868109737,0.3934095909400583,-0.9339914993403662,1
2.440962080550015,0.4752860038983223,-0.9754785837137963,1
2.480649292990292,0.5571624168565864,-1.016965668087226,1
2.520336505430569,0.6390388298148505,-1.058452752460656,1
2.560023717870846,0.7209152427731146,-1.099939836834086,1
