2.689426551590889,0.3568261505296091,0.3190926329361513,1
2.733906874096093,0.3120011330133757,0.2415541346626975,1
2.778387196601297,0.2671761154971424,0.1640156363892437,1
2.822867519106501,0.2223510979809089,0.08647713811578997,1
2.867347841611706,0.1775260804646755,0.008938639842336255,1
2.91182816411691,0.1327010629484421,-0.06859985843111752,1
2.956308486622114,0.08787604543220867,-0.1461383567045713,1
3.000788809127318,0.04305102791597526,-0.2236768549780251,1
3.045269131632522,-0.001773989600258097,-0.3012153532514789,1
3.089749454137727,-0.04659900711649151,-0.3787538515249326,1
3.134229776642931,-0.09142402463272492,-0.4562923497983863,1
2.738666295006537,0.2967487225927252,0.3820700123739272,1
2.783146617511742,0.2519237050764918,0.3045315141004734,1
2.827626940016946,0.2070986875602584,0.2269930158270197,1
2.87210726252215,0.162273670044025,0.1494545175535659,1
2.916587585027354,0.1174486525277916,0.07191601928011218,1
2.961067907532558,0.07262363501155816,-0.00562247899334159,1
3.005548230037763,0.02779861749532475,-0.08316097726679542,1
3.050028552542967,-0.01702640002090872,-0.1606994755402491,1
3.094508875048171,-0.06185141753714207,-0.238237973813703,1
3.138989197553375,-0.1066764350533754,-0.3157764720871566,1
3.183469520058579,-0.1515014525696089,-0.3933149703606104,1
2.787906038422186,0.2366712946558413,0.4450473918117032,1
2.83238636092739,0.1918462771396079,0.3675088935382493,1
2.876866683432594,0.1470212596233745,0.2899703952647956,1
2.921347005937799,0.1021962421071411,0.2124318969913418,1
2.965827328443003,0.05737122459090765,0.1348933987178881,1
3.010307650948207,0.01254620707467424,0.05735490044443434,1
3.054787973453411,-0.03227881044155922,-0.02018359782901949,1
3.099268295958616,-0.07710382795779264,-0.0977220961024732,1
3.14374861846382,-0.121928845474026,-0.175260594375927,1
3.188228940969024,-0.1667538629902594,-0.2527990926493807,1
3.232709263474228,-0.2115788805064927,-0.3303375909228344,1
2.837145781837835,0.1765938667189574,0.5080247712494791,1
2.881626104343039,0.1317688492027239,0.4304862729760253,1
2.926106426848243,0.08694383168649056,0.3529477747025715,1
2.970586749353447,0.04211881417025709,0.2754092764291177,1
3.015067071858652,-0.002706203345976266,0.197870778155664,1
3.059547394363856,-0.04753122086220973,0.1203322798822103,1
3.10402771686906,-0.09235623837844315,0.04279378160875644,1
3.148508039374264,-0.1371812558946766,-0.03474471666469728,1
3.192988361879468,-0.1820062734109099,-0.1122832149381511,1
3.237468684384673,-0.2268312909271433,-0.1898217132116048,1
3.281949006889877,-0.2716563084433768,-0.2673602114850585,1
2.886385525253483,0.1165164387820734,0.571002150687255,1
2.930865847758688,0.07169142126584005,0.4934636524138012,1
2.975346170263892,0.02686640374960664,0.4159251541403475,1
3.019826492769096,-0.01795861376662677,0.3383866558668936,1
3.0643068152743,-0.06278363128286019,0.2608481575934399,1
3.108787137779504,-0.1076086487990936,0.1833096593199862,1
3.153267460284709,-0.1524336663153271,0.1057711610465324,1
3.197747782789913,-0.1972586838315605,0.02823266277307865,1
3.242228105295117,-0.2420837013477937,-0.04930583550037518,1
3.286708427800321,-0.2869087188640272,-0.1268443337738289,1
3.331188750305526,-0.3317337363802607,-0.2043828320472826,1
2.935625268669132,0.05643901084518943,0.6339795301250309,1
2.980105591174336,0.01161399332895607,0.5564410318515771,1
3.024585913679541,-0.03321102418727734,0.4789025335781234,1
3.069066236184745,-0.07803604170351075,0.4013640353046696,1
3.113546558689949,-0.1228610592197442,0.3238255370312159,1
3.158026881195153,-0.1676860767359776,0.2462870387577621,1
3.202507203700357,-0.2125110942522111,0.1687485404843083,1
3.246987526205562,-0.2573361117684443,0.09121004221085457,1
3.291467848710766,-0.3021611292846778,0.01367154393740075,1
3.33594817121597,-0.3469861468009113,-0.06386695433605297,1
3.380428493721174,-0.3918111643171445,-0.1414054526095067,1
2.984865012084781,-0.003638417091694546,0.6969569095628069,1
3.029345334589985,-0.0484634346079279,0.6194184112893532,1
3.073825657095189,-0.09328845212416131,0.5418799130158993,1
3.118305979600394,-0.1381134696403947,0.4643414147424456,1
3.162786302105598,-0.1829384871566281,0.3868029164689918,1
3.207266624610802,-0.2277635046728615,0.3092644181955381,1
3.251746947116006,-0.272588522189095,0.2317259199220843,1
3.29622726962121,-0.3174135397053284,0.1541874216486306,1
3.340707592126415,-0.3622385572215617,0.07664892337517673,1
3.385187914631619,-0.4070635747377951,-0.0008895748982769847,1
3.429668237136823,-0.4518885922540286,-0.0784280731717307,1
3.034104755500429,-0.06371584502857847,0.7599342890005828,1
3.078585078005634,-0.1085408625448119,0.6823957907271291,1
3.123065400510838,-0.1533658800610452,0.6048572924536754,1
3.167545723016042,-0.1981908975772787,0.5273187941802215,1
3.212026045521247,-0.2430159150935121,0.4497802959067677,1
3.256506368026451,-0.2878409326097456,0.372241797633314,1
3.300986690531655,-0.3326659501259788,0.2947032993598602,1
3.345467013036859,-0.3774909676422123,0.2171648010864065,1
3.389947335542063,-0.4223159851584458,0.1396263028129527,1
3.434427658047267,-0.467141002674679,0.06208780453949894,1
3.478907980552472,-0.5119660201909124,-0.01545069373395477,1
3.083344498916078,-0.1237932729654624,0.8229116684383587,1
3.127824821421282,-0.1686182904816957,0.7453731701649049,1
3.172305143926486,-0.2134433079979293,0.6678346718914511,1
3.216785466431691,-0.2582683255141625,0.5902961736179974,1
3.261265788936895,-0.303093343030396,0.5127576753445436,1
3.305746111442099,-0.3479183605466294,0.4352191770710899,1
3.350226433947304,-0.3927433780628629,0.357680678797636,1
3.394706756452508,-0.4375683955790962,0.2801421805241824,1
3.439187078957712,-0.4823934130953296,0.2026036822507285,1
3.483667401462916,-0.527218430611563,0.1250651839772748,1
3.52814772396812,-0.5720434481277963,0.0475266857038211,1
3.132584242331727,-0.1838707009023463,0.8858890478761346,1
3.177064564836931,-0.2286957184185797,0.8083505496026808,1
3.221544887342135,-0.2735207359348131,0.730812051329227,1
3.266025209847339,-0.3183457534510466,0.6532735530557733,1
3.310505532352544,-0.3631707709672798,0.5757350547823196,1
3.354985854857748,-0.4079957884835133,0.4981965565088659,1
3.399466177362952,-0.4528208059997468,0.4206580582354119,1
3.443946499868157,-0.4976458235159802,0.3431195599619583,1
3.488426822373361,-0.5424708410322134,0.2655810616885045,1
3.532907144878564,-0.5872958585484469,0.1880425634150507,1
3.577387467383769,-0.6321208760646804,0.110504065141597,1
3.181823985747375,-0.2439481288392301,0.9488664273139106,1
3.22630430825258,-0.2887731463554635,0.8713279290404569,1
3.270784630757784,-0.333598163871697,0.7937894307670029,1
3.315264953262988,-0.3784231813879305,0.7162509324935492,1
3.359745275768192,-0.4232481989041637,0.6387124342200955,1
3.404225598273396,-0.4680732164203972,0.5611739359466418,1
3.448705920778601,-0.5128982339366306,0.4836354376731878,1
3.493186243283805,-0.5577232514528641,0.4060969393997341,1
3.537666565789009,-0.6025482689690973,0.3285584411262804,1
3.582146888294214,-0.6473732864853308,0.2510199428528267,1
3.626627210799418,-0.6921983040015642,0.173481444579373,1
