0.4920436361946001,-0.03296433422917133,-0.3131643871918395,1
0.5198978180502437,-0.1102355532794345,-0.3702021225925283,1
0.5477519999058873,-0.1875067723296976,-0.427239857993217,1
0.575606181761531,-0.2647779913799608,-0.4842775933939057,1
0.6034603636171746,-0.342049210430224,-0.5413153287945945,1
0.6313145454728182,-0.4193204294804871,-0.5983530641952832,1
0.6591687273284619,-0.4965916485307503,-0.6553907995959721,1
0.6870229091841055,-0.5738628675810133,-0.7124285349966608,1
0.7148770910397492,-0.6511340866312765,-0.7694662703973495,1
0.7427312728953928,-0.7284053056815396,-0.8265040057980383,1
0.7705854547510363,-0.8056765247318027,-0.8835417411987271,1
0.5133984963979481,-0.08588290160384848,-0.231044991354393,1
0.5412526782535917,-0.1631541206541116,-0.2880827267550818,1
0.5691068601092354,-0.2404253397043748,-0.3451204621557705,1
0.596961041964879,-0.3176965587546379,-0.4021581975564593,1
0.6248152238205226,-0.3949677778049011,-0.4591959329571481,1
0.6526694056761663,-0.4722389968551642,-0.5162336683578368,1
0.6805235875318099,-0.5495102159054275,-0.5732714037585257,1
0.7083777693874534,-0.6267814349556906,-0.6303091391592144,1
0.7362319512430971,-0.7040526540059535,-0.6873468745599031,1
0.7640861330987407,-0.7813238730562169,-0.7443846099605919,1
0.7919403149543843,-0.8585950921064798,-0.8014223453612807,1
0.5347533566012961,-0.1388014689785256,-0.1489255955169466,1
0.5626075384569398,-0.2160726880287888,-0.2059633309176353,1
0.5904617203125834,-0.2933439070790519,-0.2630010663183241,1
0.618315902168227,-0.3706151261293152,-0.3200388017190129,1
0.6461700840238707,-0.4478863451795783,-0.3770765371197016,1
0.6740242658795143,-0.5251575642298414,-0.4341142725203904,1
0.701878447735158,-0.6024287832801047,-0.4911520079210792,1
0.7297326295908015,-0.6797000023303679,-0.5481897433217678,1
0.7575868114464451,-0.756971221380631,-0.6052274787224566,1
0.7854409933020888,-0.8342424404308939,-0.6622652141231454,1
0.8132951751577323,-0.9115136594811573,-0.7193029495238342,1
0.5561082168046442,-0.1917200363532028,-0.06680619967950011,1
0.5839623986602878,-0.268991255403466,-0.1238439350801888,1
0.6118165805159314,-0.3462624744537291,-0.1808816704808776,1
0.6396707623715751,-0.4235336935039922,-0.2379194058815664,1
0.6675249442272186,-0.5008049125542555,-0.2949571412822551,1
0.6953791260828622,-0.5780761316045187,-0.3519948766829438,1
0.7232333079385059,-0.6553473506547818,-0.4090326120836327,1
0.7510874897941495,-0.7326185697050449,-0.4660703474843214,1
0.7789416716497931,-0.809889788755308,-0.5231080828850101,1
0.8067958535054368,-0.8871610078055712,-0.5801458182856989,1
0.8346500353610804,-0.9644322268558343,-0.6371835536863877,1
0.5774630770079922,-0.24463860372788,0.01531319615794632,1
0.6053172588636357,-0.3219098227781431,-0.04172453924274241,1
0.6331714407192793,-0.3991810418284062,-0.09876227464343115,1
0.661025622574923,-0.4764522608786695,-0.1558000100441199,1
0.6888798044305666,-0.5537234799289326,-0.2128377454448087,1
0.7167339862862102,-0.6309946989791957,-0.2698754808454974,1
0.7445881681418539,-0.7082659180294588,-0.3269132162461863,1
0.7724423499974975,-0.7855371370797222,-0.383950951646875,1
0.8002965318531411,-0.8628083561299851,-0.4409886870475637,1
0.8281507137087848,-0.9400795751802484,-0.4980264224482525,1
0.8560048955644284,-1.017350794230511,-0.5550641578489413,1
0.5988179372113401,-0.2975571711025571,0.09743259199539281,1
0.6266721190669837,-0.3748283901528203,0.04039485659470407,1
0.6545263009226274,-0.4520996092030834,-0.01664287880598467,1
0.682380482778271,-0.5293708282533467,-0.07368061420667346,1
0.7102346646339147,-0.6066420473036098,-0.1307183496073622,1
0.7380888464895583,-0.683913266353873,-0.1877560850080509,1
0.7659430283452019,-0.7611844854041361,-0.2447938204087398,1
0.7937972102008456,-0.8384557044543992,-0.3018315558094284,1
0.8216513920564892,-0.9157269235046623,-0.3588692912101172,1
0.8495055739121328,-0.9929981425549255,-0.4159070266108059,1
0.8773597557677765,-1.070269361605189,-0.4729447620114947,1
0.6201727974146882,-0.3504757384772344,0.1795519878328393,1
0.6480269792703318,-0.4277469575274975,0.1225142524321506,1
0.6758811611259754,-0.5050181765777606,0.06547651703146182,1
0.7037353429816191,-0.5822893956280237,0.008438781630773023,1
0.7315895248372627,-0.6595606146782869,-0.04859895376991571,1
0.7594437066929063,-0.73683183372855,-0.1056366891706045,1
0.78729788854855,-0.8141030527788133,-0.1626744245712933,1
0.8151520704041936,-0.8913742718290765,-0.219712159971982,1
0.8430062522598372,-0.9686454908793396,-0.2767498953726707,1
0.8708604341154809,-1.045916709929603,-0.3337876307733595,1
0.8987146159711245,-1.123187928979866,-0.3908253661740483,1
0.6415276576180362,-0.4033943058519114,0.2616713836702858,1
0.6693818394736798,-0.4806655249021747,0.204633648269597,1
0.6972360213293235,-0.5579367439524379,0.1475959128689082,1
0.7250902031849671,-0.635207963002701,0.09055817746821945,1
0.7529443850406107,-0.7124791820529641,0.03352044206753071,1
0.7807985668962544,-0.7897504011032273,-0.02351729333315802,1
0.808652748751898,-0.8670216201534904,-0.08055502873384687,1
0.8365069306075416,-0.9442928392037535,-0.1375927641345356,1
0.8643611124631853,-1.021564058254017,-0.1946304995352243,1
0.8922152943188288,-1.09883527730428,-0.2516682349359131,1
0.9200694761744724,-1.176106496354543,-0.3087059703366019,1
0.6628825178213842,-0.4563128732265887,0.3437907795077322,1
0.6907366996770278,-0.5335840922768518,0.2867530441070434,1
0.7185908815326715,-0.6108553113271149,0.2297153087063546,1
0.7464450633883151,-0.688126530377378,0.1726775733056659,1
0.7742992452439587,-0.7653977494276412,0.1156398379049771,1
0.8021534270996024,-0.8426689684779043,0.05860210250428841,1
0.8300076089552459,-0.9199401875281676,0.001564367103599557,1
0.8578617908108895,-0.9972114065784308,-0.05547336829708913,1
0.8857159726665332,-1.074482625628694,-0.1125111036977779,1
0.9135701545221768,-1.151753844678957,-0.1695488390984666,1
0.9414243363778204,-1.22902506372922,-0.2265865744991554,1
0.6842373780247322,-0.5092314406012657,0.4259101753451786,1
0.7120915598803758,-0.586502659651529,0.3688724399444898,1
0.7399457417360195,-0.6637738787017922,0.311834704543801,1
0.767799923591663,-0.7410450977520553,0.2547969691431123,1
0.7956541054473066,-0.8183163168023184,0.1977592337424236,1
0.8235082873029503,-0.8955875358525816,0.1407214983417348,1
0.8513624691585939,-0.9728587549028447,0.08368376294104599,1
0.8792166510142375,-1.050129973953108,0.0266460275403573,1
0.9070708328698812,-1.127401193003371,-0.03039170786033144,1
0.9349250147255248,-1.204672412053634,-0.08742944326102017,1
0.9627791965811684,-1.281943631103897,-0.144467178661709,1
0.7055922382280803,-0.5621500079759429,0.508029571182625,1
0.7334464200837238,-0.6394212270262061,0.4509918357819362,1
0.7613006019393674,-0.7166924460764692,0.3939541003812475,1
0.7891547837950111,-0.7939636651267323,0.3369163649805588,1
0.8170089656506547,-0.8712348841769955,0.27987862957987,1
0.8448631475062983,-0.9485061032272586,0.2228408941791812,1
0.872717329361942,-1.025777322277522,0.1658031587784924,1
0.9005715112175856,-1.103048541327785,0.1087654233778037,1
0.9284256930732292,-1.180319760378048,0.05172768797711499,1
0.9562798749288729,-1.257590979428311,-0.005310047423573744,1
0.9841340567845164,-1.334862198478574,-0.06234778282426254,1
