0.6221225843123066,-0.0545413550410922,-0.2759090007790919,1
0.7189173941052286,-0.04419541561479268,-0.253023932840818,1
0.8157122038981505,-0.03384947618849315,-0.2301388649025442,1
0.9125070136910725,-0.02350353676219363,-0.2072537969642703,1
1.009301823483994,-0.01315759733589411,-0.1843687290259965,1
1.106096633276916,-0.002811657909594589,-0.1614836610877226,1
1.202891443069838,0.007534281516704988,-0.1385985931494487,1
1.29968625286276,0.01788022094300451,-0.1157135252111749,1
1.396481062655682,0.02822616036930403,-0.09282845727290101,1
1.493275872448604,0.03857209979560355,-0.06994338933462715,1
1.590070682241526,0.04891803922190308,-0.04705832139635333,1
0.6466567787641877,-0.07400950028836789,-0.3708777568161606,1
0.7434515885571097,-0.06366356086206831,-0.3479926888778867,1
0.8402463983500316,-0.05331762143576879,-0.3251076209396129,1
0.9370412081429534,-0.04297168200946927,-0.302222553001339,1
1.033836017935875,-0.03262574258316975,-0.2793374850630652,1
1.130630827728797,-0.02227980315687023,-0.2564524171247913,1
1.227425637521719,-0.0119338637305707,-0.2335673491865174,1
1.324220447314641,-0.001587924304271127,-0.2106822812482436,1
1.421015257107563,0.008758015122028395,-0.1877972133099697,1
1.517810066900485,0.01910395454832786,-0.1649121453716959,1
1.614604876693407,0.02944989397462744,-0.142027077433422,1
0.6711909732160688,-0.09347764553564353,-0.4658465128532293,1
0.7679857830089907,-0.08313170610934401,-0.4429614449149555,1
0.8647805928019127,-0.07278576668304448,-0.4200763769766815,1
0.9615754025948345,-0.06243982725674491,-0.3971913090384077,1
1.058370212387756,-0.05209388783044538,-0.3743062411001339,1
1.155165022180678,-0.04174794840414586,-0.35142117316186,1
1.2519598319736,-0.03140200897784634,-0.3285361052235861,1
1.348754641766522,-0.02105606955154682,-0.3056510372853123,1
1.445549451559444,-0.0107101301252473,-0.2827659693470384,1
1.542344261352366,-0.000364190698947775,-0.2598809014087645,1
1.639139071145288,0.009981748727351747,-0.2369958334704907,1
0.6957251676679498,-0.1129457907829192,-0.560815268890298,1
0.7925199774608718,-0.1025998513566196,-0.5379302009520242,1
0.8893147872537938,-0.09225391193032012,-0.5150451330137503,1
0.9861095970467156,-0.0819079725040206,-0.4921600650754765,1
1.082904406839637,-0.07156203307772108,-0.4692749971372026,1
1.179699216632559,-0.06121609365142155,-0.4463899291989287,1
1.276494026425481,-0.05087015422512198,-0.4235048612606549,1
1.373288836218403,-0.04052421479882246,-0.400619793322381,1
1.470083646011325,-0.03017827537252293,-0.3777347253841071,1
1.566878455804247,-0.01983233594622341,-0.3548496574458333,1
1.663673265597169,-0.00948639651992389,-0.3319645895075595,1
0.7202593621198309,-0.1324139360301948,-0.6557840249273666,1
0.8170541719127528,-0.1220679966038953,-0.6328989569890928,1
0.9138489817056747,-0.1117220571775958,-0.610013889050819,1
1.010643791498597,-0.1013761177512962,-0.5871288211125452,1
1.107438601291518,-0.09103017832499671,-0.5642437531742712,1
1.20423341108444,-0.08068423889869719,-0.5413586852359974,1
1.301028220877362,-0.07033829947239761,-0.5184736172977236,1
1.397823030670284,-0.05999236004609809,-0.4955885493594496,1
1.494617840463206,-0.04964642061979857,-0.4727034814211758,1
1.591412650256128,-0.03930048119349905,-0.449818413482902,1
1.68820746004905,-0.02895454176719953,-0.4269333455446281,1
0.7447935565717119,-0.1518820812774704,-0.7507527809644353,1
0.8415883663646339,-0.1415361418511709,-0.7278677130261614,1
0.9383831761575557,-0.1311902024248714,-0.7049826450878875,1
1.035177985950478,-0.1208442629985719,-0.6820975771496137,1
1.1319727957434,-0.1104983235722724,-0.6592125092113398,1
1.228767605536321,-0.1001523841459728,-0.636327441273066,1
1.325562415329243,-0.08980644471967331,-0.6134423733347921,1
1.422357225122165,-0.07946050529337373,-0.5905573053965182,1
1.519152034915087,-0.06911456586707421,-0.5676722374582444,1
1.615946844708009,-0.05876862644077469,-0.5447871695199705,1
1.712741654500931,-0.04842268701447516,-0.5219021015816967,1
0.769327751023593,-0.1713502265247461,-0.8457215370015041,1
0.866122560816515,-0.1610042870984466,-0.8228364690632303,1
0.9629173706094368,-0.1506583476721471,-0.7999514011249564,1
1.059712180402359,-0.1403124082458475,-0.7770663331866825,1
1.15650699019528,-0.129966468819548,-0.7541812652484087,1
1.253301799988202,-0.1196205293932485,-0.7312961973101348,1
1.350096609781124,-0.1092745899669489,-0.7084111293718609,1
1.446891419574046,-0.09892865054064942,-0.6855260614335871,1
1.543686229366968,-0.0885827111143499,-0.6626409934953132,1
1.64048103915989,-0.07823677168805038,-0.6397559255570393,1
1.737275848952812,-0.06789083226175086,-0.6168708576187655,1
0.7938619454754741,-0.1908183717720218,-0.9406902930385727,1
0.8906567552683959,-0.1804724323457222,-0.9178052251002988,1
0.9874515650613179,-0.1701264929194227,-0.894920157162025,1
1.08424637485424,-0.1597805534931232,-0.8720350892237511,1
1.181041184647162,-0.1494346140668236,-0.8491500212854772,1
1.277835994440083,-0.1390886746405241,-0.8262649533472034,1
1.374630804233006,-0.1287427352142246,-0.8033798854089295,1
1.471425614025927,-0.1183967957879251,-0.7804948174706556,1
1.568220423818849,-0.1080508563616255,-0.7576097495323818,1
1.665015233611771,-0.09770491693532601,-0.7347246815941079,1
1.761810043404693,-0.08735897750902649,-0.7118396136558341,1
0.818396139927355,-0.2102865170192974,-1.035659049075641,1
0.9151909497202769,-0.1999405775929979,-1.012773981137367,1
1.011985759513199,-0.1895946381666984,-0.9898889131990937,1
1.108780569306121,-0.1792486987403988,-0.9670038452608197,1
1.205575379099043,-0.1689027593140993,-0.9441187773225459,1
1.302370188891965,-0.1585568198877998,-0.9212337093842721,1
1.399164998684887,-0.1482108804615003,-0.8983486414459981,1
1.495959808477809,-0.1378649410352007,-0.8754635735077243,1
1.59275461827073,-0.1275190016089012,-0.8525785055694505,1
1.689549428063652,-0.1171730621826017,-0.8296934376311766,1
1.786344237856574,-0.1068271227563021,-0.8068083696929027,1
0.8429303343792361,-0.2297546622665731,-1.13062780511271,1
0.939725144172158,-0.2194087228402735,-1.107742737174436,1
1.03651995396508,-0.2090627834139741,-1.084857669236162,1
1.133314763758002,-0.1987168439876745,-1.061972601297888,1
1.230109573550924,-0.188370904561375,-1.039087533359615,1
1.326904383343846,-0.1780249651350754,-1.016202465421341,1
1.423699193136768,-0.1676790257087759,-0.9933173974830668,1
1.520494002929689,-0.1573330862824763,-0.970432329544793,1
1.617288812722611,-0.1469871468561768,-0.9475472616065191,1
1.714083622515533,-0.1366412074298773,-0.9246621936682453,1
1.810878432308455,-0.1262952680035778,-0.9017771257299714,1
0.8674645288311172,-0.2492228075138488,-1.225596561149779,1
0.9642593386240391,-0.2388768680875492,-1.202711493211505,1
1.061054148416961,-0.2285309286612496,-1.179826425273231,1
1.157848958209883,-0.2181849892349502,-1.156941357334957,1
1.254643768002805,-0.2078390498086506,-1.134056289396683,1
1.351438577795727,-0.1974931103823511,-1.11117122145841,1
1.448233387588649,-0.1871471709560515,-1.088286153520136,1
1.54502819738157,-0.176801231529752,-1.065401085581862,1
1.641823007174492,-0.1664552921034525,-1.042516017643588,1
1.738617816967414,-0.156109352677153,-1.019630949705314,1
1.835412626760336,-0.1457634132508535,-0.9967458817670403,1
