1.560086275872897,-0.01548617475290431,0.2922313217258695,1
1.605310505762154,-0.007735662524971765,0.203379205312537,1
1.65053473565141,1.484970296072863e-05,0.1145270888992045,1
1.695758965540666,0.007765361930893278,0.02567497248587206,1
1.740983195429922,0.01551587415882583,-0.06317714392746035,1
1.786207425319178,0.02326638638675832,-0.1520292603407928,1
1.831431655208434,0.03101689861469087,-0.2408813767541253,1
1.87665588509769,0.03876741084262342,-0.3297334931674577,1
1.921880114986946,0.04651792307055597,-0.4185856095807902,1
1.967104344876202,0.05426843529848849,-0.5074377259941226,1
2.012328574765458,0.06201894752642101,-0.5962898424074551,1
1.649148220359325,-0.01408419876257416,0.3376846440204939,1
1.694372450248581,-0.006333686534641614,0.2488325276071615,1
1.739596680137837,0.001416825693290935,0.159980411193829,1
1.784820910027094,0.009167337921223484,0.07112829478049654,1
1.83004513991635,0.01691785014915598,-0.0177238216328359,1
1.875269369805606,0.02466836237708853,-0.1065759380461684,1
1.920493599694862,0.03241887460502108,-0.1954280544595008,1
1.965717829584118,0.04016938683295362,-0.2842801708728333,1
2.010942059473374,0.04791989906088617,-0.3731322872861658,1
2.05616628936263,0.05567041128881867,-0.4619844036994982,1
2.101390519251886,0.06342092351675122,-0.5508365201128307,1
1.738210164845753,-0.01268222277224396,0.3831379663151184,1
1.783434394735009,-0.004931710544311407,0.294285849901786,1
1.828658624624265,0.002818801683621142,0.2054337334884535,1
1.873882854513521,0.01056931391155363,0.116581617075121,1
1.919107084402777,0.01831982613948618,0.02772950066178856,1
1.964331314292033,0.02607033836741873,-0.0611226157515439,1
2.00955554418129,0.03382085059535128,-0.1499747321648764,1
2.054779774070546,0.04157136282328378,-0.2388268485782088,1
2.100004003959802,0.04932187505121632,-0.3276789649915413,1
2.145228233849058,0.05707238727914887,-0.4165310814048737,1
2.190452463738314,0.06482289950708142,-0.5053831978182062,1
1.827272109332181,-0.01128024678191375,0.4285912886097429,1
1.872496339221437,-0.003529734553981256,0.3397391721964105,1
1.917720569110693,0.004220777673951293,0.250887055783078,1
1.962944798999949,0.01197128990188384,0.1620349393697455,1
2.008169028889205,0.01972180212981639,0.0731828229564131,1
2.053393258778461,0.02747231435774888,-0.01566929345691939,1
2.098617488667717,0.03522282658568143,-0.1045214098702519,1
2.143841718556974,0.04297333881361398,-0.1933735262835843,1
2.189065948446229,0.05072385104154653,-0.2822256426969167,1
2.234290178335486,0.05847436326947905,-0.3710777591102492,1
2.279514408224741,0.06622487549741157,-0.4599298755235817,1
1.916334053818608,-0.009878270791583599,0.4740446109043673,1
1.961558283707864,-0.00212775856365105,0.3851924944910349,1
2.006782513597121,0.005622753664281499,0.2963403780777024,1
2.052006743486376,0.01337326589221405,0.20748826166437,1
2.097230973375633,0.02112377812014654,0.1186361452510375,1
2.142455203264889,0.02887429034807909,0.02978402883770509,1
2.187679433154145,0.03662480257601164,-0.05906808757562734,1
2.232903663043401,0.04437531480394419,-0.1479202039889598,1
2.278127892932657,0.05212582703187671,-0.2367723204022923,1
2.323352122821913,0.05987633925980923,-0.3256244368156247,1
2.368576352711169,0.06762685148774178,-0.4144765532289572,1
2.005395998305036,-0.008476294801253392,0.5194979331989918,1
2.050620228194292,-0.0007257825733208434,0.4306458167856594,1
2.095844458083548,0.007024729654611706,0.3417937003723269,1
2.141068687972804,0.0147752418825442,0.2529415839589945,1
2.18629291786206,0.02252575411047675,0.164089467545662,1
2.231517147751317,0.0302762663384093,0.07523735113232954,1
2.276741377640572,0.03802677856634179,-0.01361476528100294,1
2.321965607529829,0.04577729079427434,-0.1024668816943354,1
2.367189837419085,0.05352780302220689,-0.1913189981076679,1
2.412414067308341,0.06127831525013944,-0.2801711145210003,1
2.457638297197597,0.06902882747807196,-0.3690232309343328,1
2.094457942791464,-0.007074318810923186,0.5649512554936164,1
2.13968217268072,0.0006761934170093076,0.4760991390802839,1
2.184906402569976,0.008426705644941856,0.3872470226669514,1
2.230130632459232,0.01617721787287441,0.2983949062536189,1
2.275354862348488,0.02392773010080695,0.2095427898402865,1
2.320579092237745,0.03167824232873945,0.120690673426954,1
2.365803322127,0.039428754556672,0.03183855701362157,1
2.411027552016257,0.04717926678460455,-0.05701355939971089,1
2.456251781905512,0.05492977901253709,-0.1458656758130434,1
2.501476011794769,0.06268029124046962,-0.2347177922263758,1
2.546700241684025,0.07043080346840214,-0.3235699086397082,1
2.183519887277891,-0.005672342820593035,0.6104045777882409,1
2.228744117167147,0.002078169407339514,0.5215524613749084,1
2.273968347056404,0.009828681635272063,0.4327003449615759,1
2.31919257694566,0.01757919386320461,0.3438482285482434,1
2.364416806834916,0.02532970609113711,0.254996112134911,1
2.409641036724172,0.03308021831906965,0.1661439957215785,1
2.454865266613428,0.0408307305470022,0.07729187930824608,1
2.500089496502684,0.04858124277493475,-0.01156023710508639,1
2.54531372639194,0.05633175500286725,-0.1004123535184188,1
2.590537956281196,0.06408226723079979,-0.1892644699317513,1
2.635762186170453,0.07183277945873234,-0.2781165863450837,1
2.272581831764319,-0.004270366830262828,0.6558579000828653,1
2.317806061653575,0.003480145397669721,0.5670057836695328,1
2.363030291542831,0.01123065762560221,0.4781536672562003,1
2.408254521432088,0.01898116985353476,0.3893015508428679,1
2.453478751321343,0.02673168208146731,0.3004494344295354,1
2.4987029812106,0.03448219430939986,0.211597318016203,1
2.543927211099856,0.04223270653733241,0.1227452016028705,1
2.589151440989112,0.0499832187652649,0.03389308518953807,1
2.634375670878368,0.05773373099319745,-0.05495903122379439,1
2.679599900767624,0.06548424322113,-0.1438111476371269,1
2.72482413065688,0.07323475544906252,-0.2326632640504593,1
2.361643776250747,-0.002868390839932622,0.7013112223774897,1
2.406868006140003,0.004882121387999871,0.6124591059641572,1
2.452092236029259,0.01263263361593242,0.5236069895508247,1
2.497316465918515,0.02038314584386497,0.4347548731374923,1
2.542540695807771,0.02813365807179752,0.3459027567241599,1
2.587764925697027,0.03588417029973001,0.2570506403108275,1
2.632989155586283,0.04363468252766256,0.168198523897495,1
2.678213385475539,0.05138519475559511,0.07934640748416252,1
2.723437615364796,0.05913570698352763,-0.009505708929169937,1
2.768661845254052,0.06688621921146018,-0.0983578253425024,1
2.813886075143308,0.0746367314393927,-0.1872099417558349,1
2.450705720737175,-0.001466414849602471,0.7467645446721142,1
2.495929950626431,0.006284097378330078,0.6579124282587817,1
2.541154180515687,0.01403460960626263,0.5690603118454493,1
2.586378410404943,0.02178512183419518,0.4802081954321168,1
2.631602640294199,0.02953563406212767,0.3913560790187843,1
2.676826870183455,0.03728614629006022,0.3025039626054519,1
2.722051100072711,0.04503665851799277,0.2136518461921194,1
2.767275329961967,0.05278717074592529,0.124799729778787,1
2.812499559851223,0.06053768297385781,0.03594761336545452,1
2.857723789740479,0.06828819520179036,-0.05290450304787794,1
2.902948019629735,0.07603870742972291,-0.1417566194612104,1
