1.852033712956611,0.1684823563125767,-0.1531404756219995,1
1.834504177894158,0.2361526880317088,-0.2246488080421926,1
1.816974642831704,0.3038230197508408,-0.2961571404623857,1
1.79944510776925,0.3714933514699729,-0.3676654728825788,1
1.781915572706797,0.4391636831891049,-0.4391738053027718,1
1.764386037644343,0.5068340149082369,-0.510682137722965,1
1.74685650258189,0.574504346627369,-0.5821904701431581,1
1.729326967519436,0.6421746783465011,-0.6536988025633513,1
1.711797432456982,0.7098450100656333,-0.7252071349835444,1
1.694267897394529,0.7775153417847651,-0.7967154674037374,1
1.676738362332075,0.8451856735038972,-0.8682237998239305,1
1.939217453311851,0.1454109012667812,-0.1963458384805608,1
1.921687918249398,0.2130812329859132,-0.2678541709007538,1
1.904158383186944,0.2807515647050453,-0.3393625033209469,1
1.88662884812449,0.3484218964241774,-0.41087083574114,1
1.869099313062037,0.4160922281433094,-0.4823791681613331,1
1.851569777999583,0.4837625598624414,-0.5538875005815262,1
1.834040242937129,0.5514328915815735,-0.6253958330017193,1
1.816510707874676,0.6191032233007056,-0.6969041654219125,1
1.798981172812222,0.6867735550198377,-0.7684124978421055,1
1.781451637749769,0.7544438867389696,-0.8399208302622986,1
1.763922102687315,0.8221142184581016,-0.9114291626824916,1
2.026401193667091,0.1223394462209856,-0.2395512013391219,1
2.008871658604638,0.1900097779401177,-0.3110595337593151,1
1.991342123542184,0.2576801096592497,-0.3825678661795081,1
1.97381258847973,0.3253504413783818,-0.4540761985997013,1
1.956283053417277,0.3930207730975138,-0.5255845310198943,1
1.938753518354823,0.4606911048166458,-0.5970928634400874,1
1.921223983292369,0.5283614365357779,-0.6686011958602806,1
1.903694448229916,0.59603176825491,-0.7401095282804736,1
1.886164913167462,0.6637020999740421,-0.8116178607006667,1
1.868635378105009,0.731372431693174,-0.8831261931208597,1
1.851105843042555,0.7990427634123061,-0.9546345255410528,1
2.113584934022331,0.09926799117519006,-0.2827565641976831,1
2.096055398959878,0.1669383228943221,-0.3542648966178763,1
2.078525863897424,0.2346086546134541,-0.4257732290380694,1
2.06099632883497,0.3022789863325863,-0.4972815614582624,1
2.043466793772517,0.3699493180517183,-0.5687898938784555,1
2.025937258710063,0.4376196497708503,-0.6402982262986486,1
2.008407723647609,0.5052899814899824,-0.7118065587188417,1
1.990878188585156,0.5729603132091144,-0.783314891139035,1
1.973348653522702,0.6406306449282465,-0.854823223559228,1
1.955819118460249,0.7083009766473785,-0.9263315559794211,1
1.938289583397795,0.7759713083665105,-0.9978398883996141,1
2.200768674377571,0.0761965361293945,-0.3259619270562444,1
2.183239139315118,0.1438668678485266,-0.3974702594764374,1
2.165709604252664,0.2115371995676586,-0.4689785918966305,1
2.14818006919021,0.2792075312867907,-0.5404869243168237,1
2.130650534127757,0.3468778630059227,-0.6119952567370167,1
2.113120999065303,0.4145481947250547,-0.6835035891572098,1
2.095591464002849,0.4822185264441868,-0.755011921577403,1
2.078061928940396,0.5498888581633189,-0.8265202539975961,1
2.060532393877942,0.617559189882451,-0.8980285864177892,1
2.043002858815488,0.6852295216015829,-0.9695369188379822,1
2.025473323753035,0.752899853320715,-1.041045251258175,1
2.287952414732811,0.05312508108359895,-0.3691672899148055,1
2.270422879670357,0.120795412802731,-0.4406756223349987,1
2.252893344607904,0.188465744521863,-0.5121839547551917,1
2.23536380954545,0.2561360762409952,-0.5836922871753848,1
2.217834274482997,0.3238064079601272,-0.6552006195955778,1
2.200304739420543,0.3914767396792592,-0.7267089520157711,1
2.182775204358089,0.4591470713983913,-0.7982172844359642,1
2.165245669295636,0.5268174031175233,-0.8697256168561572,1
2.147716134233182,0.5944877348366554,-0.9412339492763503,1
2.130186599170729,0.6621580665557874,-1.012742281696543,1
2.112657064108275,0.7298283982749194,-1.084250614116736,1
2.375136155088051,0.03005362603780343,-0.4123726527733668,1
2.357606620025597,0.09772395775693543,-0.4838809851935598,1
2.340077084963144,0.1653942894760675,-0.555389317613753,1
2.32254754990069,0.2330646211951996,-0.626897650033946,1
2.305018014838236,0.3007349529143316,-0.6984059824541392,1
2.287488479775783,0.3684052846334636,-0.7699143148743323,1
2.269958944713329,0.4360756163525957,-0.8414226472945253,1
2.252429409650876,0.5037459480717278,-0.9129309797147186,1
2.234899874588422,0.5714162797908598,-0.9844393121349116,1
2.217370339525969,0.6390866115099918,-1.055947644555105,1
2.199840804463515,0.7067569432291239,-1.127455976975298,1
2.462319895443291,0.006982170992007874,-0.455578015631928,1
2.444790360380837,0.07465250271113988,-0.5270863480521211,1
2.427260825318384,0.1423228344302719,-0.5985946804723141,1
2.40973129025593,0.209993166149404,-0.6701030128925073,1
2.392201755193476,0.2776634978685361,-0.7416113453127003,1
2.374672220131023,0.3453338295876681,-0.8131196777328934,1
2.357142685068569,0.4130041613068002,-0.8846280101530867,1
2.339613150006115,0.4806744930259322,-0.9561363425732797,1
2.322083614943662,0.5483448247450643,-1.027644674993473,1
2.304554079881208,0.6160151564641962,-1.099153007413666,1
2.287024544818755,0.6836854881833283,-1.170661339833859,1
2.549503635798531,-0.01608928405378768,-0.4987833784904891,1
2.531974100736077,0.05158104766534433,-0.5702917109106822,1
2.514444565673624,0.1192513793844764,-0.6418000433308754,1
2.49691503061117,0.1869217111036085,-0.7133083757510684,1
2.479385495548716,0.2545920428227405,-0.7848167081712615,1
2.461855960486263,0.3222623745418725,-0.8563250405914548,1
2.444326425423809,0.3899327062610046,-0.9278333730116478,1
2.426796890361355,0.4576030379801367,-0.9993417054318409,1
2.409267355298902,0.5252733696992687,-1.070850037852034,1
2.391737820236448,0.5929437014184007,-1.142358370272227,1
2.374208285173995,0.6606140331375328,-1.21386670269242,1
2.636687376153771,-0.03916073909958323,-0.5419887413490504,1
2.619157841091317,0.02850959261954877,-0.6134970737692435,1
2.601628306028864,0.09617992433868083,-0.6850054061894365,1
2.58409877096641,0.1638502560578129,-0.7565137386096298,1
2.566569235903956,0.231520587776945,-0.8280220710298228,1
2.549039700841503,0.299190919496077,-0.8995304034500159,1
2.531510165779049,0.3668612512152091,-0.9710387358702089,1
2.513980630716595,0.4345315829343411,-1.042547068290402,1
2.496451095654142,0.5022019146534732,-1.114055400710595,1
2.478921560591688,0.5698722463726051,-1.185563733130788,1
2.461392025529235,0.6375425780917372,-1.257072065550981,1
2.723871116509011,-0.06223219414537878,-0.5851941042076115,1
2.706341581446557,0.005438137573753277,-0.6567024366278046,1
2.688812046384104,0.07310846929288531,-0.7282107690479979,1
2.67128251132165,0.1407788010120174,-0.7997191014681909,1
2.653752976259196,0.2084491327311494,-0.871227433888384,1
2.636223441196743,0.2761194644502815,-0.942735766308577,1
2.618693906134289,0.3437897961694135,-1.01424409872877,1
2.601164371071835,0.4114601278885456,-1.085752431148963,1
2.583634836009382,0.4791304596076777,-1.157260763569156,1
2.566105300946928,0.5468007913268096,-1.228769095989349,1
2.548575765884475,0.6144711230459416,-1.300277428409542,1
