1.65609392821857,0.1346552237561561,-0.5792213783904153,1
1.581312902715124,0.2009271431871622,-0.5752425695758152,1
1.506531877211678,0.2671990626181684,-0.5712637607612152,1
1.431750851708231,0.3334709820491746,-0.5672849519466151,1
1.356969826204785,0.3997429014801807,-0.563306143132015,1
1.282188800701339,0.4660148209111868,-0.559327334317415,1
1.207407775197892,0.532286740342193,-0.5553485255028149,1
1.132626749694446,0.5985586597731992,-0.5513697166882149,1
1.057845724191,0.6648305792042053,-0.5473909078736148,1
0.9830646986875534,0.7311024986352115,-0.5434120990590147,1
0.9082836731841071,0.7973744180662177,-0.5394332902444147,1
1.595054560021649,0.06838330432514989,-0.6226060326480078,1
1.520273534518202,0.1346552237561561,-0.6186272238334078,1
1.445492509014756,0.2009271431871622,-0.6146484150188077,1
1.370711483511309,0.2671990626181684,-0.6106696062042076,1
1.295930458007863,0.3334709820491745,-0.6066907973896076,1
1.221149432504417,0.3997429014801807,-0.6027119885750075,1
1.146368407000971,0.4660148209111868,-0.5987331797604075,1
1.071587381497524,0.532286740342193,-0.5947543709458074,1
0.996806355994078,0.5985586597731991,-0.5907755621312073,1
0.9220253304906316,0.6648305792042053,-0.5867967533166073,1
0.8472443049871853,0.7311024986352115,-0.5828179445020072,1
1.534015191824727,0.002111384894143697,-0.6659906869056005,1
1.45923416632128,0.06838330432514989,-0.6620118780910004,1
1.384453140817834,0.134655223756156,-0.6580330692764004,1
1.309672115314388,0.2009271431871622,-0.6540542604618003,1
1.234891089810942,0.2671990626181684,-0.6500754516472002,1
1.160110064307495,0.3334709820491745,-0.6460966428326002,1
1.085329038804049,0.3997429014801807,-0.642117834018,1
1.010548013300602,0.4660148209111869,-0.6381390252033999,1
0.9357669877971563,0.5322867403421929,-0.6341602163887999,1
0.8609859622937099,0.5985586597731991,-0.6301814075741998,1
0.7862049367902636,0.6648305792042053,-0.6262025987595998,1
1.472975823627805,-0.06416053453686249,-0.709375341163193,1
1.398194798124359,0.002111384894143697,-0.705396532348593,1
1.323413772620912,0.06838330432514986,-0.7014177235339929,1
1.248632747117466,0.134655223756156,-0.6974389147193928,1
1.17385172161402,0.2009271431871622,-0.6934601059047928,1
1.099070696110573,0.2671990626181683,-0.6894812970901927,1
1.024289670607127,0.3334709820491745,-0.6855024882755927,1
0.9495086451036807,0.3997429014801807,-0.6815236794609926,1
0.8747276196002345,0.4660148209111868,-0.6775448706463926,1
0.7999465940967881,0.5322867403421929,-0.6735660618317925,1
0.7251655685933418,0.5985586597731991,-0.6695872530171924,1
1.411936455430883,-0.1304324539678686,-0.7527599954207856,1
1.337155429927437,-0.06416053453686249,-0.7487811866061855,1
1.262374404423991,0.002111384894143697,-0.7448023777915854,1
1.187593378920544,0.06838330432514986,-0.7408235689769854,1
1.112812353417098,0.134655223756156,-0.7368447601623853,1
1.038031327913652,0.2009271431871621,-0.7328659513477853,1
0.9632503024102054,0.2671990626181683,-0.7288871425331852,1
0.8884692769067589,0.3334709820491745,-0.7249083337185852,1
0.8136882514033127,0.3997429014801807,-0.7209295249039851,1
0.7389072258998665,0.4660148209111867,-0.716950716089385,1
0.66412620039642,0.5322867403421929,-0.712971907274785,1
1.350897087233962,-0.1967043733988748,-0.7961446496783782,1
1.276116061730515,-0.1304324539678686,-0.7921658408637781,1
1.201335036227069,-0.06416053453686243,-0.7881870320491781,1
1.126554010723622,0.002111384894143697,-0.784208223234578,1
1.051772985220176,0.06838330432514989,-0.7802294144199778,1
0.9769919597167299,0.134655223756156,-0.7762506056053778,1
0.9022109342132836,0.2009271431871622,-0.7722717967907778,1
0.8274299087098372,0.2671990626181684,-0.7682929879761777,1
0.752648883206391,0.3334709820491745,-0.7643141791615776,1
0.6778678577029447,0.3997429014801806,-0.7603353703469776,1
0.6030868321994983,0.4660148209111868,-0.7563565615323775,1
1.28985771903704,-0.2629762928298809,-0.8395293039359707,1
1.215076693533593,-0.1967043733988749,-0.8355504951213707,1
1.140295668030147,-0.1304324539678687,-0.8315716863067707,1
1.065514642526701,-0.06416053453686249,-0.8275928774921706,1
0.9907336170232545,0.002111384894143642,-0.8236140686775705,1
0.9159525915198082,0.06838330432514977,-0.8196352598629705,1
0.8411715660163618,0.134655223756156,-0.8156564510483704,1
0.7663905405129154,0.2009271431871621,-0.8116776422337703,1
0.6916095150094692,0.2671990626181683,-0.8076988334191703,1
0.6168284895060229,0.3334709820491744,-0.8037200246045701,1
0.5420474640025766,0.3997429014801805,-0.79974121578997,1
1.228818350840118,-0.3292482122608871,-0.8829139581935633,1
1.154037325336672,-0.2629762928298809,-0.8789351493789633,1
1.079256299833225,-0.1967043733988748,-0.8749563405643632,1
1.004475274329779,-0.1304324539678687,-0.8709775317497631,1
0.9296942488263328,-0.06416053453686249,-0.8669987229351631,1
0.8549132233228864,0.002111384894143642,-0.863019914120563,1
0.7801321978194401,0.06838330432514983,-0.8590411053059629,1
0.7053511723159936,0.134655223756156,-0.8550622964913629,1
0.6305701468125474,0.2009271431871621,-0.8510834876767628,1
0.5557891213091012,0.2671990626181682,-0.8471046788621627,1
0.4810080958056547,0.3334709820491744,-0.8431258700475627,1
1.167778982643196,-0.3955201316918933,-0.926298612451156,1
1.09299795713975,-0.3292482122608871,-0.9223198036365559,1
1.018216931636304,-0.2629762928298809,-0.9183409948219557,1
0.9434359061328573,-0.1967043733988749,-0.9143621860073557,1
0.8686548806294111,-0.1304324539678687,-0.9103833771927556,1
0.7938738551259646,-0.06416053453686255,-0.9064045683781555,1
0.7190928296225183,0.002111384894143642,-0.9024257595635555,1
0.644311804119072,0.06838330432514983,-0.8984469507489555,1
0.5695307786156257,0.134655223756156,-0.8944681419343553,1
0.4947497531121795,0.200927143187162,-0.8904893331197553,1
0.4199687276087331,0.2671990626181682,-0.8865105243051553,1
1.106739614446274,-0.4617920511228994,-0.9696832667087484,1
1.031958588942828,-0.3955201316918932,-0.9657044578941484,1
0.9571775634393819,-0.3292482122608871,-0.9617256490795484,1
0.8823965379359355,-0.2629762928298809,-0.9577468402649482,1
0.8076155124324892,-0.1967043733988748,-0.9537680314503482,1
0.732834486929043,-0.1304324539678686,-0.9497892226357482,1
0.6580534614255965,-0.06416053453686243,-0.9458104138211481,1
0.5832724359221501,0.002111384894143753,-0.9418316050065479,1
0.5084914104187038,0.06838330432514989,-0.9378527961919479,1
0.4337103849152576,0.134655223756156,-0.9338739873773478,1
0.3589293594118114,0.2009271431871621,-0.9298951785627477,1
1.045700246249353,-0.5280639705539056,-1.013067920966341,1
0.9709192207459065,-0.4617920511228994,-1.009089112151741,1
0.8961381952424602,-0.3955201316918932,-1.005110303337141,1
0.8213571697390138,-0.3292482122608871,-1.001131494522541,1
0.7465761442355675,-0.2629762928298809,-0.9971526857079408,1
0.6717951187321213,-0.1967043733988748,-0.9931738768933407,1
0.5970140932286748,-0.1304324539678686,-0.9891950680787406,1
0.5222330677252286,-0.06416053453686243,-0.9852162592641406,1
0.4474520422217824,0.002111384894143697,-0.9812374504495405,1
0.3726710167183359,0.06838330432514977,-0.9772586416349404,1
0.2978899912148895,0.134655223756156,-0.9732798328203404,1
