1.513391287852467,0.46357777468678,-0.5613850200273918,1
1.488193533779807,0.4928483007000294,-0.6536255181646061,1
1.462995779707147,0.5221188267132787,-0.7458660163018205,1
1.437798025634487,0.551389352726528,-0.8381065144390348,1
1.412600271561827,0.5806598787397773,-0.9303470125762491,1
1.387402517489167,0.6099304047530267,-1.022587510713463,1
1.362204763416507,0.639200930766276,-1.114828008850678,1
1.337007009343847,0.6684714567795254,-1.207068506987892,1
1.311809255271187,0.6977419827927747,-1.299309005125106,1
1.286611501198527,0.727012508806024,-1.391549503262321,1
1.261413747125867,0.7562830348192733,-1.483790001399535,1
1.538762798148149,0.3735939826392695,-0.5968702794186728,1
1.513565044075489,0.4028645086525189,-0.6891107775558871,1
1.488367290002829,0.4321350346657682,-0.7813512756931015,1
1.463169535930169,0.4614055606790175,-0.8735917738303158,1
1.437971781857509,0.4906760866922668,-0.9658322719675302,1
1.412774027784849,0.5199466127055161,-1.058072770104744,1
1.387576273712189,0.5492171387187654,-1.150313268241959,1
1.362378519639529,0.5784876647320147,-1.242553766379173,1
1.337180765566869,0.607758190745264,-1.334794264516387,1
1.311983011494209,0.6370287167585134,-1.427034762653602,1
1.286785257421549,0.6662992427717627,-1.519275260790816,1
1.564134308443831,0.2836101905917591,-0.6323555388099538,1
1.538936554371171,0.3128807166050084,-0.7245960369471681,1
1.513738800298511,0.3421512426182577,-0.8168365350843825,1
1.488541046225851,0.3714217686315071,-0.9090770332215968,1
1.463343292153191,0.4006922946447564,-1.001317531358811,1
1.438145538080531,0.4299628206580057,-1.093558029496025,1
1.412947784007871,0.459233346671255,-1.18579852763324,1
1.387750029935211,0.4885038726845043,-1.278039025770454,1
1.362552275862551,0.5177743986977537,-1.370279523907668,1
1.337354521789891,0.547044924711003,-1.462520022044883,1
1.312156767717231,0.5763154507242523,-1.554760520182097,1
1.589505818739513,0.1936263985442486,-0.6678407982012349,1
1.564308064666853,0.2228969245574979,-0.7600812963384492,1
1.539110310594193,0.2521674505707472,-0.8523217944756635,1
1.513912556521533,0.2814379765839966,-0.9445622926128779,1
1.488714802448873,0.3107085025972459,-1.036802790750092,1
1.463517048376213,0.3399790286104952,-1.129043288887307,1
1.438319294303553,0.3692495546237445,-1.221283787024521,1
1.413121540230893,0.3985200806369938,-1.313524285161735,1
1.387923786158233,0.4277906066502432,-1.405764783298949,1
1.362726032085573,0.4570611326634925,-1.498005281436164,1
1.337528278012913,0.4863316586767418,-1.590245779573378,1
1.614877329035195,0.1036426064967381,-0.7033260575925159,1
1.589679574962535,0.1329131325099874,-0.7955665557297302,1
1.564481820889875,0.1621836585232367,-0.8878070538669446,1
1.539284066817215,0.1914541845364861,-0.9800475520041589,1
1.514086312744555,0.2207247105497354,-1.072288050141373,1
1.488888558671895,0.2499952365629847,-1.164528548278587,1
1.463690804599235,0.279265762576234,-1.256769046415802,1
1.438493050526575,0.3085362885894833,-1.349009544553016,1
1.413295296453915,0.3378068146027327,-1.441250042690231,1
1.388097542381255,0.367077340615982,-1.533490540827445,1
1.362899788308595,0.3963478666292313,-1.625731038964659,1
1.640248839330877,0.01365881444922767,-0.7388113169837969,1
1.615051085258217,0.04292934046247698,-0.8310518151210112,1
1.589853331185556,0.07219986647572629,-0.9232923132582256,1
1.564655577112896,0.1014703924889757,-1.01553281139544,1
1.539457823040236,0.130740918502225,-1.107773309532654,1
1.514260068967576,0.1600114445154743,-1.200013807669869,1
1.489062314894916,0.1892819705287236,-1.292254305807083,1
1.463864560822256,0.2185524965419729,-1.384494803944297,1
1.438666806749596,0.2478230225552222,-1.476735302081511,1
1.413469052676936,0.2770935485684716,-1.568975800218726,1
1.388271298604276,0.3063640745817209,-1.66121629835594,1
1.665620349626558,-0.07632497759828294,-0.774296576375078,1
1.640422595553898,-0.04705445158503363,-0.8665370745122923,1
1.615224841481238,-0.01778392557178426,-0.9587775726495066,1
1.590027087408578,0.0114866004414651,-1.051018070786721,1
1.564829333335918,0.04075712645471441,-1.143258568923935,1
1.539631579263258,0.07002765246796372,-1.235499067061149,1
1.514433825190598,0.09929817848121303,-1.327739565198364,1
1.489236071117938,0.1285687044944623,-1.419980063335578,1
1.464038317045278,0.1578392305077116,-1.512220561472793,1
1.438840562972618,0.187109756520961,-1.604461059610007,1
1.413642808899958,0.2163802825342103,-1.696701557747221,1
1.69099185992224,-0.1663087696457934,-0.809781835766359,1
1.66579410584958,-0.137038243632544,-0.9020223339035732,1
1.64059635177692,-0.1077677176192947,-0.9942628320407877,1
1.61539859770426,-0.0784971916060454,-1.086503330178002,1
1.5902008436316,-0.04922666559279609,-1.178743828315216,1
1.56500308955894,-0.01995613957954678,-1.270984326452431,1
1.53980533548628,0.009314386433702526,-1.363224824589645,1
1.51460758141362,0.03858491244695184,-1.455465322726859,1
1.48940982734096,0.06785543846020115,-1.547705820864073,1
1.4642120732683,0.09712596447345051,-1.639946319001288,1
1.43901431919564,0.1263964904866998,-1.732186817138502,1
1.716363370217922,-0.2562925616933039,-0.8452670951576401,1
1.691165616145262,-0.2270220356800544,-0.9375075932948543,1
1.665967862072602,-0.1977515096668051,-1.029748091432069,1
1.640770107999942,-0.1684809836535558,-1.121988589569283,1
1.615572353927282,-0.1392104576403065,-1.214229087706497,1
1.590374599854622,-0.1099399316270572,-1.306469585843712,1
1.565176845781962,-0.08066940561380787,-1.398710083980926,1
1.539979091709302,-0.05139887960055856,-1.49095058211814,1
1.514781337636642,-0.02212835358730925,-1.583191080255355,1
1.489583583563982,0.007142172425940119,-1.675431578392569,1
1.464385829491322,0.03641269843918943,-1.767672076529783,1
1.741734880513604,-0.3462763537408143,-0.880752354548921,1
1.716537126440944,-0.317005827727565,-0.9729928526861353,1
1.691339372368284,-0.2877353017143157,-1.06523335082335,1
1.666141618295624,-0.2584647757010664,-1.157473848960564,1
1.640943864222964,-0.229194249687817,-1.249714347097778,1
1.615746110150304,-0.1999237236745677,-1.341954845234993,1
1.590548356077644,-0.1706531976613184,-1.434195343372207,1
1.565350602004984,-0.1413826716480691,-1.526435841509421,1
1.540152847932324,-0.1121121456348197,-1.618676339646635,1
1.514955093859664,-0.08284161962157033,-1.71091683778385,1
1.489757339787004,-0.05357109360832102,-1.803157335921064,1
1.767106390809286,-0.4362601457883249,-0.9162376139402021,1
1.741908636736626,-0.4069896197750756,-1.008478112077416,1
1.716710882663966,-0.3777190937618263,-1.100718610214631,1
1.691513128591306,-0.348448567748577,-1.192959108351845,1
1.666315374518646,-0.3191780417353277,-1.285199606489059,1
1.641117620445986,-0.2899075157220783,-1.377440104626274,1
1.615919866373326,-0.260636989708829,-1.469680602763488,1
1.590722112300666,-0.2313664636955797,-1.561921100900702,1
1.565524358228006,-0.2020959376823304,-1.654161599037917,1
1.540326604155346,-0.1728254116690809,-1.746402097175131,1
1.515128850082686,-0.1435548856558316,-1.838642595312345,1
