0.8553937140751166,0.5697479295153137,-0.1657498665967982,1
0.8155725434239297,0.6603698784142717,-0.151539421645155,1
0.7757513727727429,0.7509918273132299,-0.1373289766935119,1
0.7359302021215559,0.841613776212188,-0.1231185317418687,1
0.6961090314703691,0.9322357251111462,-0.1089080867902255,1
0.6562878608191822,1.022857674010104,-0.09469764183858233,1
0.6164666901679953,1.113479622909062,-0.08048719688693913,1
0.5766455195168084,1.204101571808021,-0.06627675193529596,1
0.5368243488656215,1.294723520706979,-0.05206630698365278,1
0.4970031782144346,1.385345469605937,-0.03785586203200961,1
0.4571820075632478,1.475967418504895,-0.02364541708036644,1
0.7678187643999661,0.5367985823624879,-0.2010339807503013,1
0.7279975937487793,0.6274205312614459,-0.1868235357986581,1
0.6881764230975923,0.7180424801604041,-0.1726130908470149,1
0.6483552524464055,0.8086644290593623,-0.1584026458953717,1
0.6085340817952186,0.8992863779583202,-0.1441922009437285,1
0.5687129111440318,0.9899083268572784,-0.1299817559920854,1
0.5288917404928448,1.080530275756237,-0.1157713110404422,1
0.489070569841658,1.171152224655195,-0.101560866088799,1
0.449249399190471,1.261774173554153,-0.0873504211371558,1
0.4094282285392842,1.352396122453111,-0.07313997618551263,1
0.3696070578880973,1.443018071352069,-0.05892953123386946,1
0.6802438147248157,0.503849235209662,-0.2363180949038043,1
0.6404226440736288,0.5944711841086201,-0.2221076499521611,1
0.600601473422442,0.6850931330075782,-0.2078972050005179,1
0.560780302771255,0.7757150819065364,-0.1936867600488747,1
0.5209591321200682,0.8663370308054945,-0.1794763150972316,1
0.4811379614688813,0.9569589797044524,-0.1652658701455884,1
0.4413167908176944,1.047580928603411,-0.1510554251939452,1
0.4014956201665075,1.138202877502369,-0.136844980242302,1
0.3616744495153207,1.228824826401327,-0.1226345352906588,1
0.3218532788641338,1.319446775300285,-0.1084240903390156,1
0.2820321082129469,1.410068724199243,-0.09421364538737248,1
0.5926688650496652,0.470899888056836,-0.2716022090573073,1
0.5528476943984784,0.5615218369557942,-0.2573917641056641,1
0.5130265237472914,0.6521437858547523,-0.243181319154021,1
0.4732053530961046,0.7427657347537104,-0.2289708742023778,1
0.4333841824449177,0.8333876836526686,-0.2147604292507346,1
0.3935630117937309,0.9240096325516265,-0.2005499842990914,1
0.3537418411425439,1.014631581450585,-0.1863395393474482,1
0.3139206704913571,1.105253530349543,-0.172129094395805,1
0.2740994998401701,1.195875479248501,-0.1579186494441619,1
0.2342783291889833,1.286497428147459,-0.1437082044925187,1
0.1944571585377964,1.377119377046417,-0.1294977595408755,1
0.5050939153745148,0.4379505409040101,-0.3068863232108103,1
0.4652727447233279,0.5285724898029682,-0.2926758782591672,1
0.4254515740721411,0.6191944387019264,-0.278465433307524,1
0.3856304034209541,0.7098163876008845,-0.2642549883558808,1
0.3458092327697673,0.8004383364998426,-0.2500445434042377,1
0.3059880621185804,0.8910602853988008,-0.2358340984525945,1
0.2661668914673935,0.9816822342977589,-0.2216236535009513,1
0.2263457208162066,1.072304183196717,-0.2074132085493081,1
0.1865245501650198,1.162926132095675,-0.1932027635976649,1
0.1467033795138329,1.253548080994633,-0.1789923186460217,1
0.1068822088626461,1.344170029893591,-0.1647818736943786,1
0.4175189656993643,0.4050011937511843,-0.3421704373643134,1
0.3776977950481775,0.4956231426501423,-0.3279599924126702,1
0.3378766243969906,0.5862450915491004,-0.313749547461027,1
0.2980554537458037,0.6768670404480586,-0.2995391025093838,1
0.2582342830946168,0.7674889893470167,-0.2853286575577406,1
0.21841311244343,0.8581109382459748,-0.2711182126060975,1
0.1785919417922431,0.948732887144933,-0.2569077676544542,1
0.1387707711410563,1.039354836043891,-0.2426973227028111,1
0.09894960048986931,1.129976784942849,-0.2284868777511679,1
0.05912842983868247,1.220598733841807,-0.2142764327995247,1
0.01930725918749551,1.311220682740765,-0.2000659878478815,1
0.3299440160242137,0.3720518465983583,-0.3774545515178165,1
0.2901228453730269,0.4626737954973164,-0.3632441065661732,1
0.25030167472184,0.5532957443962745,-0.3490336616145301,1
0.2104805040706531,0.6439176932952326,-0.3348232166628869,1
0.1706593334194662,0.7345396421941908,-0.3206127717112437,1
0.1308381627682794,0.8251615910931489,-0.3064023267596006,1
0.09101699211709244,0.915783539992107,-0.2921918818079574,1
0.05119582146590559,1.006405488891065,-0.2779814368563142,1
0.01137465081471864,1.097027437790023,-0.263770991904671,1
-0.0284465198364682,1.187649386688981,-0.2495605469530278,1
-0.06826769048765505,1.278271335587939,-0.2353501020013846,1
0.2423690663490634,0.3391024994455324,-0.4127386656713194,1
0.2025478956978765,0.4297244483444905,-0.3985282207196763,1
0.1627267250466896,0.5203463972434487,-0.3843177757680331,1
0.1229055543955027,0.6109683461424067,-0.3701073308163899,1
0.0830843837443159,0.7015902950413648,-0.3558968858647467,1
0.04326321309312905,0.792212243940323,-0.3416864409131035,1
0.0034420424419421,0.8828341928392811,-0.3274759959614604,1
-0.03637912820924474,0.9734561417382392,-0.3132655510098172,1
-0.0762002988604317,1.064078090637197,-0.299055106058174,1
-0.1160214695116185,1.154700039536155,-0.2848446611065308,1
-0.1558426401628054,1.245321988435113,-0.2706342161548876,1
0.1547941166739129,0.3061531522927065,-0.4480227798248224,1
0.1149729460227261,0.3967751011916646,-0.4338123348731793,1
0.07515177537153925,0.4873970500906227,-0.4196018899215361,1
0.03533060472035229,0.5780189989895809,-0.4053914449698929,1
-0.00449056593083455,0.6686409478885389,-0.3911810000182497,1
-0.04431173658202139,0.759262896787497,-0.3769705550666066,1
-0.08413290723320835,0.8498848456864552,-0.3627601101149633,1
-0.1239540778843952,0.9405067945854133,-0.3485496651633202,1
-0.163775248535582,1.031128743484371,-0.3343392202116771,1
-0.2035964191867689,1.12175069238333,-0.3201287752600338,1
-0.2434175898379559,1.212372641282288,-0.3059183303083907,1
0.06721916699876249,0.2732038051398806,-0.4833068939783255,1
0.02739799634757564,0.3638257540388388,-0.4690964490266823,1
-0.01242317430361131,0.4544477029377968,-0.4548860040750391,1
-0.05224434495479816,0.545069651836755,-0.440675559123396,1
-0.092065515605985,0.6356916007357131,-0.4264651141717528,1
-0.1318866862571718,0.7263135496346711,-0.4122546692201096,1
-0.1717078569083587,0.8169354985336295,-0.3980442242684664,1
-0.2115290275595455,0.9075574474325874,-0.3838337793168232,1
-0.2513501982107326,0.9981793963315455,-0.36962333436518,1
-0.2911713688619194,1.088801345230504,-0.3554128894135369,1
-0.3309925395131063,1.179423294129462,-0.3412024444618937,1
-0.02035578267638785,0.2402544579870547,-0.5185910081318285,1
-0.06017695332757469,0.3308764068860128,-0.5043805631801853,1
-0.09999812397876165,0.421498355784971,-0.4901701182285422,1
-0.1398192946299485,0.5121203046839291,-0.4759596732768989,1
-0.1796404652811353,0.6027422535828872,-0.4617492283252558,1
-0.2194616359323222,0.6933642024818453,-0.4475387833736126,1
-0.2592828065835092,0.7839861513808035,-0.4333283384219694,1
-0.2991039772346961,0.8746081002797614,-0.4191178934703262,1
-0.3389251478858829,0.9652300491787196,-0.4049074485186831,1
-0.3787463185370697,1.055851998077678,-0.3906970035670398,1
-0.4185674891882566,1.146473946976636,-0.3764865586153967,1
