0.1825776595351081,0.6584273212994658,-0.4888721107864844,1
0.257878730904653,0.7177404675268573,-0.460381773210268,1
0.333179802274198,0.7770536137542488,-0.4318914356340515,1
0.408480873643743,0.8363667599816405,-0.4034010980578351,1
0.4837819450132879,0.8956799062090319,-0.3749107604816187,1
0.5590830163828329,0.9549930524364234,-0.3464204229054023,1
0.6343840877523779,1.014306198663815,-0.3179300853291858,1
0.7096851591219226,1.073619344891207,-0.2894397477529694,1
0.7849862304914675,1.132932491118598,-0.260949410176753,1
0.8602873018610125,1.19224563734599,-0.2324590726005365,1
0.9355883732305574,1.251558783573381,-0.2039687350243201,1
0.2266373716213208,0.645136179505597,-0.5776532310806963,1
0.3019384429908658,0.7044493257329886,-0.5491628935044799,1
0.3772395143604107,0.7637624719603802,-0.5206725559282634,1
0.4525405857299557,0.8230756181877716,-0.492182218352047,1
0.5278416570995006,0.8823887644151631,-0.4636918807758306,1
0.6031427284690455,0.9417019106425548,-0.4352015431996141,1
0.6784437998385905,1.001015056869946,-0.4067112056233977,1
0.7537448712081354,1.060328203097338,-0.3782208680471812,1
0.8290459425776803,1.119641349324729,-0.3497305304709648,1
0.9043470139472253,1.178954495552121,-0.3212401928947484,1
0.9796480853167702,1.238267641779512,-0.292749855318532,1
0.2706970837075335,0.6318450377117283,-0.6664343513749081,1
0.3459981550770785,0.6911581839391199,-0.6379440137986917,1
0.4212992264466234,0.7504713301665114,-0.6094536762224753,1
0.4966002978161684,0.8097844763939031,-0.5809633386462588,1
0.5719013691857133,0.8690976226212945,-0.5524730010700425,1
0.6472024405552582,0.928410768848686,-0.5239826634938261,1
0.7225035119248032,0.9877239150760775,-0.4954923259176096,1
0.7978045832943481,1.047037061303469,-0.4670019883413932,1
0.873105654663893,1.106350207530861,-0.4385116507651767,1
0.948406726033438,1.165663353758252,-0.4100213131889603,1
1.023707797402983,1.224976499985644,-0.3815309756127439,1
0.3147567957937463,0.6185538959178596,-0.7552154716691201,1
0.3900578671632912,0.6778670421452511,-0.7267251340929036,1
0.4653589385328362,0.7371801883726427,-0.6982347965166872,1
0.5406600099023811,0.7964933346000342,-0.6697444589404707,1
0.6159610812719261,0.8558064808274257,-0.6412541213642543,1
0.691262152641471,0.9151196270548172,-0.6127637837880379,1
0.766563224011016,0.9744327732822089,-0.5842734462118214,1
0.8418642953805608,1.0337459195096,-0.5557831086356051,1
0.9171653667501057,1.093059065736992,-0.5272927710593887,1
0.9924664381196507,1.152372211964384,-0.4988024334831722,1
1.067767509489196,1.211685358191775,-0.4703120959069558,1
0.358816507879959,0.6052627541239908,-0.8439965919633319,1
0.434117579249504,0.6645759003513824,-0.8155062543871154,1
0.5094186506190489,0.723889046578774,-0.787015916810899,1
0.5847197219885938,0.7832021928061654,-0.7585255792346826,1
0.6600207933581388,0.8425153390335571,-0.7300352416584662,1
0.7353218647276837,0.9018284852609486,-0.7015449040822498,1
0.8106229360972287,0.9611416314883401,-0.6730545665060333,1
0.8859240074667736,1.020454777715732,-0.6445642289298169,1
0.9612250788363185,1.079767923943123,-0.6160738913536005,1
1.036526150205863,1.139081070170515,-0.587583553777384,1
1.111827221575408,1.198394216397906,-0.5590932162011676,1
0.4028762199661717,0.5919716123301221,-0.9327777122575437,1
0.4781772913357166,0.6512847585575137,-0.9042873746813272,1
0.5534783627052616,0.7105979047849051,-0.8757970371051108,1
0.6287794340748065,0.7699110510122967,-0.8473066995288945,1
0.7040805054443514,0.8292241972396883,-0.818816361952678,1
0.7793815768138964,0.8885373434670798,-0.7903260243764616,1
0.8546826481834414,0.9478504896944715,-0.7618356868002452,1
0.9299837195529863,1.007163635921863,-0.7333453492240287,1
1.005284790922531,1.066476782149254,-0.7048550116478123,1
1.080585862292076,1.125789928376646,-0.676364674071596,1
1.155886933661621,1.185103074604038,-0.6478743364953794,1
0.4469359320523845,0.5786804705362534,-1.021558832551756,1
0.5222370034219295,0.6379936167636449,-0.9930684949755393,1
0.5975380747914744,0.6973067629910366,-0.9645781573993227,1
0.6728391461610193,0.756619909218428,-0.9360878198231064,1
0.7481402175305643,0.8159330554458195,-0.90759748224689,1
0.8234412889001091,0.875246201673211,-0.8791071446706735,1
0.8987423602696542,0.9345593479006027,-0.8506168070944571,1
0.974043431639199,0.9938724941279942,-0.8221264695182406,1
1.049344503008744,1.053185640355386,-0.7936361319420242,1
1.124645574378289,1.112498786582777,-0.7651457943658079,1
1.199946645747834,1.171811932810169,-0.7366554567895914,1
0.4909956441385972,0.5653893287423846,-1.110339952845968,1
0.5662967155081422,0.6247024749697763,-1.081849615269751,1
0.6415977868776871,0.6840156211971677,-1.053359277693535,1
0.716898858247232,0.7433287674245592,-1.024868940117318,1
0.792199929616777,0.8026419136519509,-0.9963786025411019,1
0.8675010009863219,0.8619550598793424,-0.9678882649648854,1
0.9428020723558669,0.9212682061067339,-0.939397927388669,1
1.018103143725412,0.9805813523341256,-0.9109075898124526,1
1.093404215094957,1.039894498561517,-0.8824172522362361,1
1.168705286464502,1.099207644788909,-0.8539269146600198,1
1.244006357834047,1.1585207910163,-0.8254365770838034,1
0.5350553562248099,0.552098186948516,-1.199121073140179,1
0.6103564275943548,0.6114113331759075,-1.170630735563963,1
0.6856574989638997,0.6707244794032989,-1.142140397987746,1
0.7609585703334447,0.7300376256306906,-1.11365006041153,1
0.8362596417029896,0.7893507718580821,-1.085159722835314,1
0.9115607130725345,0.8486639180854736,-1.056669385259097,1
0.9868617844420795,0.9079770643128653,-1.028179047682881,1
1.062162855811625,0.9672902105402568,-0.9996887101066644,1
1.137463927181169,1.026603356767648,-0.9711983725304479,1
1.212764998550714,1.08591650299504,-0.9427080349542315,1
1.288066069920259,1.145229649222431,-0.9142176973780151,1
0.5791150683110227,0.5388070451546472,-1.287902193434391,1
0.6544161396805676,0.5981201913820386,-1.259411855858175,1
0.7297172110501124,0.6574333376094303,-1.230921518281958,1
0.8050182824196574,0.7167464838368218,-1.202431180705742,1
0.8803193537892023,0.7760596300642133,-1.173940843129525,1
0.9556204251587472,0.835372776291605,-1.145450505553309,1
1.030921496528292,0.8946859225189965,-1.116960167977093,1
1.106222567897837,0.953999068746388,-1.088469830400876,1
1.181523639267382,1.01331221497378,-1.05997949282466,1
1.256824710636927,1.072625361201171,-1.031489155248443,1
1.332125782006472,1.131938507428563,-1.002998817672227,1
0.6231747803972353,0.5255159033607785,-1.376683313728603,1
0.6984758517667802,0.5848290495881701,-1.348192976152387,1
0.7737769231363252,0.6441421958155615,-1.31970263857617,1
0.8490779945058701,0.7034553420429531,-1.291212300999954,1
0.924379065875415,0.7627684882703447,-1.262721963423737,1
0.99968013724496,0.8220816344977362,-1.234231625847521,1
1.074981208614505,0.8813947807251277,-1.205741288271304,1
1.15028227998405,0.9407079269525194,-1.177250950695088,1
1.225583351353595,1.000021073179911,-1.148760613118872,1
1.30088442272314,1.059334219407302,-1.120270275542655,1
1.376185494092685,1.118647365634694,-1.091779937966439,1
