3.045076204574401,0.4963073011731787,0.003551186149850533,1
3.108750488083365,0.4590548325148101,-0.06396058466441042,1
3.172424771592329,0.4218023638564413,-0.1314723554786714,1
3.236099055101294,0.3845498951980726,-0.1989841262929324,1
3.299773338610258,0.3472974265397039,-0.2664958971071933,1
3.363447622119222,0.3100449578813352,-0.3340076679214542,1
3.427121905628187,0.2727924892229665,-0.4015194387357153,1
3.490796189137151,0.2355400205645978,-0.4690312095499762,1
3.554470472646115,0.1982875519062291,-0.5365429803642371,1
3.618144756155079,0.1610350832478604,-0.6040547511784979,1
3.681819039664044,0.1237826145894917,-0.671566521992759,1
3.076036623370694,0.4284717180349767,0.0701829062856705,1
3.139710906879658,0.391219249376608,0.002671135471409541,1
3.203385190388622,0.3539667807182393,-0.06484063534285142,1
3.267059473897587,0.3167143120598706,-0.1323524061571124,1
3.330733757406551,0.2794618434015019,-0.1998641769713733,1
3.394408040915515,0.2422093747431332,-0.2673759477856342,1
3.458082324424479,0.2049569060847645,-0.3348877185998953,1
3.521756607933443,0.1677044374263957,-0.4023994894141563,1
3.585430891442408,0.1304519687680271,-0.4699112602284172,1
3.649105174951373,0.09319950010965838,-0.5374230310426781,1
3.712779458460337,0.05594703145128971,-0.604934801856939,1
3.106997042166987,0.3606361348967746,0.1368146264214905,1
3.170671325675951,0.3233836662384059,0.06930285560722949,1
3.234345609184915,0.2861311975800372,0.001791084792968523,1
3.298019892693879,0.2488787289216685,-0.06572068602129247,1
3.361694176202844,0.2116262602632998,-0.1332324568355534,1
3.425368459711808,0.1743737916049311,-0.2007442276498143,1
3.489042743220772,0.1371213229465624,-0.2682559984640753,1
3.552717026729737,0.0998688542881937,-0.3357677692783363,1
3.616391310238701,0.06261638562982497,-0.4032795400925973,1
3.680065593747665,0.02536391697145635,-0.4707913109068581,1
3.743739877256629,-0.01188855168691239,-0.5383030817211191,1
3.137957460963279,0.2928005517585726,0.2034463465573104,1
3.201631744472244,0.2555480831002039,0.1359345757430495,1
3.265306027981208,0.2182956144418352,0.06842280492878849,1
3.328980311490172,0.1810431457834665,0.0009110341145275036,1
3.392654594999136,0.1437906771250977,-0.06660073669973343,1
3.456328878508101,0.1065382084667291,-0.1341125075139943,1
3.520003162017065,0.06928573980836034,-0.2016242783282554,1
3.58367744552603,0.03203327114999166,-0.2691360491425163,1
3.647351729034994,-0.005219197508377071,-0.3366478199567773,1
3.711026012543958,-0.04247166616674569,-0.4041595907710381,1
3.774700296052922,-0.07972413482511442,-0.4716713615852991,1
3.168917879759572,0.2249649686203705,0.2700780666931304,1
3.232592163268536,0.1877124999620018,0.2025662958788694,1
3.296266446777501,0.1504600313036331,0.1350545250646084,1
3.359940730286465,0.1132075626452644,0.06754275425034745,1
3.42361501379543,0.07595509398689571,3.098343608651244e-05,1
3.487289297304394,0.03870262532852697,-0.06748078737817439,1
3.550963580813358,0.001450156670158242,-0.1349925581924354,1
3.614637864322322,-0.03580231198821038,-0.2025043290066964,1
3.678312147831286,-0.07305478064657911,-0.2700160998209573,1
3.741986431340251,-0.1103072493049478,-0.3375278706352182,1
3.805660714849215,-0.1475597179633165,-0.4050396414494791,1
3.199878298555865,0.1571293854821685,0.3367097868289503,1
3.263552582064829,0.1198769168237998,0.2691980160146893,1
3.327226865573794,0.08262444816543107,0.2016862452004284,1
3.390901149082758,0.04537197950706234,0.1341744743861674,1
3.454575432591722,0.008119510848693667,0.06666270357190643,1
3.518249716100687,-0.02913295780967506,-0.0008490672423544787,1
3.581923999609651,-0.0663854264680438,-0.0683608380566155,1
3.645598283118615,-0.1036378951264124,-0.1358726088708765,1
3.709272566627579,-0.1408903637847811,-0.2033843796851374,1
3.772946850136544,-0.1781428324431499,-0.2708961504993983,1
3.836621133645508,-0.2153953011015184,-0.3384079213136593,1
3.230838717352158,0.08929380234396639,0.4033415069647702,1
3.294513000861122,0.05204133368559766,0.3358297361505094,1
3.358187284370087,0.01478886502722898,0.2683179653362484,1
3.421861567879051,-0.02246360363113975,0.2008061945219874,1
3.485535851388015,-0.05971607228950837,0.1332944237077265,1
3.549210134896979,-0.0969685409478771,0.06578265289346555,1
3.612884418405944,-0.1342210096062458,-0.00172911792079547,1
3.676558701914908,-0.1714734782646146,-0.06924088873505643,1
3.740232985423873,-0.2087259469229832,-0.1367526595493174,1
3.803907268932837,-0.2459784155813519,-0.2042644303635782,1
3.867581552441801,-0.2832308842397205,-0.2717762011778392,1
3.261799136148451,0.02145821920576435,0.4699732271005902,1
3.325473419657415,-0.01579424945260433,0.4024614562863292,1
3.389147703166379,-0.05304671811097306,0.3349496854720683,1
3.452821986675344,-0.09029918676934179,0.2674379146578073,1
3.516496270184308,-0.1275516554277104,0.1999261438435464,1
3.580170553693272,-0.1648041240860791,0.1324143730292855,1
3.643844837202237,-0.2020565927444478,0.06490260221502445,1
3.707519120711201,-0.2393090614028167,-0.002609168599236517,1
3.771193404220165,-0.2765615300611853,-0.07012093941349748,1
3.834867687729129,-0.3138139987195539,-0.1376327102277583,1
3.898541971238094,-0.3510664673779225,-0.2051444810420193,1
3.292759554944744,-0.04637736393243774,0.5366049472364102,1
3.356433838453708,-0.08362983259080636,0.4690931764221492,1
3.420108121962672,-0.1208823012491751,0.4015814056078882,1
3.483782405471636,-0.1581347699075438,0.3340696347936273,1
3.547456688980601,-0.1953872385659124,0.2665578639793663,1
3.611130972489565,-0.2326397072242812,0.1990460931651054,1
3.67480525599853,-0.2698921758826499,0.1315343223508444,1
3.738479539507494,-0.3071446445410187,0.0640225515365834,1
3.802153823016458,-0.3443971131993873,-0.003489219277677563,1
3.865828106525422,-0.3816495818577559,-0.07100099009193842,1
3.929502390034386,-0.4189020505161246,-0.1385127609061994,1
3.323719973741036,-0.1142129470706398,0.6032366673722301,1
3.387394257250001,-0.1514654157290084,0.5357248965579692,1
3.451068540758965,-0.1887178843873771,0.4682131257437082,1
3.514742824267929,-0.2259703530457458,0.4007013549294473,1
3.578417107776894,-0.2632228217041144,0.3331895841151863,1
3.642091391285858,-0.3004752903624833,0.2656778133009253,1
3.705765674794822,-0.3377277590208519,0.1981660424866643,1
3.769439958303786,-0.3749802276792207,0.1306542716724034,1
3.833114241812751,-0.4122326963375894,0.06314250085814241,1
3.896788525321715,-0.449485164995958,-0.004369269956118443,1
3.960462808830679,-0.4867376336543266,-0.07188104077037941,1
3.354680392537329,-0.1820485302088418,0.6698683875080501,1
3.418354676046294,-0.2193009988672104,0.6023566166937891,1
3.482028959555258,-0.2565534675255792,0.5348448458795282,1
3.545703243064222,-0.2938059361839478,0.4673330750652672,1
3.609377526573187,-0.3310584048423165,0.3998213042510063,1
3.673051810082151,-0.3683108735006853,0.3323095334367453,1
3.736726093591115,-0.4055633421590539,0.2647977626224843,1
3.800400377100079,-0.4428158108174228,0.1972859918082233,1
3.864074660609044,-0.4800682794757914,0.1297742209939624,1
3.927748944118008,-0.51732074813416,0.06226245017970153,1
3.991423227626972,-0.5545732167925286,-0.005249320634559435,1
