0.3874538995937806,-0.1055404038032505,-0.3616677007090858,1
0.4179152551711407,-0.07385461873173049,-0.4514903973997947,1
0.4483766107485008,-0.04216883366021051,-0.5413130940905035,1
0.4788379663258608,-0.01048304858869054,-0.6311357907812123,1
0.5092993219032209,0.02120273648282944,-0.7209584874719212,1
0.539760677480581,0.05288852155434942,-0.81078118416263,1
0.5702220330579412,0.08457430662586943,-0.9006038808533389,1
0.6006833886353012,0.1162600916973894,-0.9904265775440477,1
0.6311447442126613,0.1479458767689094,-1.080249274234756,1
0.6616060997900214,0.1796316618404294,-1.170071970925465,1
0.6920674553673815,0.2113174469119494,-1.259894667616174,1
0.4056328603696455,-0.2000453285359416,-0.3888401975832771,1
0.4360942159470056,-0.1683595434644217,-0.478662894273986,1
0.4665555715243657,-0.1366737583929017,-0.5684855909646949,1
0.4970169271017257,-0.1049879733213817,-0.6583082876554037,1
0.5274782826790858,-0.07330218824986173,-0.7481309843461126,1
0.5579396382564459,-0.04161640317834175,-0.8379536810368214,1
0.588400993833806,-0.009930618106821776,-0.9277763777275303,1
0.618862349411166,0.0217551669646982,-1.017599074418239,1
0.6493237049885261,0.05344095203621821,-1.107421771108948,1
0.6797850605658863,0.08512673710773819,-1.197244467799657,1
0.7102464161432464,0.1168125221792582,-1.287067164490366,1
0.4238118211455104,-0.2945502532686329,-0.4160126944574686,1
0.4542731767228705,-0.2628644681971129,-0.5058353911481774,1
0.4847345323002306,-0.2311786831255929,-0.5956580878388862,1
0.5151958878775906,-0.1994928980540729,-0.685480784529595,1
0.5456572434549507,-0.167807112982553,-0.7753034812203039,1
0.5761185990323108,-0.136121327911033,-0.8651261779110128,1
0.6065799546096708,-0.104435542839513,-0.9549488746017216,1
0.6370413101870309,-0.07274975776799303,-1.04477157129243,1
0.6675026657643911,-0.04106397269647299,-1.134594267983139,1
0.6979640213417511,-0.009378187624953016,-1.224416964673848,1
0.7284253769191112,0.02230759744656696,-1.314239661364557,1
0.4419907819213752,-0.3890551780013241,-0.4431851913316599,1
0.4724521374987353,-0.3573693929298041,-0.5330078880223688,1
0.5029134930760955,-0.3256836078582842,-0.6228305847130776,1
0.5333748486534555,-0.2939978227867642,-0.7126532814037864,1
0.5638362042308156,-0.2623120377152442,-0.8024759780944953,1
0.5942975598081757,-0.2306262526437242,-0.8922986747852041,1
0.6247589153855357,-0.1989404675722042,-0.9821213714759131,1
0.6552202709628958,-0.1672546825006843,-1.071944068166622,1
0.6856816265402559,-0.1355688974291642,-1.16176676485733,1
0.716142982117616,-0.1038831123576442,-1.251589461548039,1
0.7466043376949761,-0.07219732728612427,-1.341412158238748,1
0.4601697426972401,-0.4835601027340153,-0.4703576882058512,1
0.4906310982746002,-0.4518743176624954,-0.5601803848965601,1
0.5210924538519602,-0.4201885325909754,-0.6500030815872689,1
0.5515538094293203,-0.3885027475194554,-0.7398257782779778,1
0.5820151650066804,-0.3568169624479354,-0.8296484749686867,1
0.6124765205840405,-0.3251311773764154,-0.9194711716593955,1
0.6429378761614006,-0.2934453923048954,-1.009293868350104,1
0.6733992317387607,-0.2617596072333754,-1.099116565040813,1
0.7038605873161208,-0.2300738221618554,-1.188939261731522,1
0.7343219428934807,-0.1983880370903354,-1.278761958422231,1
0.7647832984708409,-0.1667022520188154,-1.36858465511294,1
0.478348703473105,-0.5780650274667065,-0.4975301850800427,1
0.5088100590504651,-0.5463792423951865,-0.5873528817707515,1
0.5392714146278251,-0.5146934573236666,-0.6771755784614604,1
0.5697327702051852,-0.4830076722521466,-0.7669982751521692,1
0.6001941257825453,-0.4513218871806267,-0.856820971842878,1
0.6306554813599053,-0.4196361021091067,-0.9466436685335868,1
0.6611168369372654,-0.3879503170375866,-1.036466365224296,1
0.6915781925146255,-0.3562645319660666,-1.126289061915005,1
0.7220395480919856,-0.3245787468945466,-1.216111758605713,1
0.7525009036693456,-0.2928929618230267,-1.305934455296422,1
0.7829622592467058,-0.2612071767515067,-1.395757151987131,1
0.4965276642489699,-0.6725699521993977,-0.524702681954234,1
0.52698901982633,-0.6408841671278778,-0.6145253786449428,1
0.55745037540369,-0.6091983820563578,-0.7043480753356517,1
0.5879117309810501,-0.5775125969848378,-0.7941707720263605,1
0.6183730865584102,-0.5458268119133178,-0.8839934687170694,1
0.6488344421357702,-0.5141410268417979,-0.9738161654077782,1
0.6792957977131303,-0.4824552417702778,-1.063638862098487,1
0.7097571532904904,-0.4507694566987578,-1.153461558789196,1
0.7402185088678505,-0.4190836716272379,-1.243284255479905,1
0.7706798644452105,-0.3873978865557179,-1.333106952170613,1
0.8011412200225707,-0.3557121014841979,-1.422929648861322,1
0.5147066250248348,-0.767074876932089,-0.5518751788284254,1
0.5451679806021948,-0.735389091860569,-0.6416978755191343,1
0.5756293361795549,-0.703703306789049,-0.7315205722098431,1
0.606090691756915,-0.672017521717529,-0.8213432689005519,1
0.6365520473342751,-0.6403317366460091,-0.9111659655912607,1
0.6670134029116351,-0.6086459515744891,-1.000988662281969,1
0.6974747584889952,-0.5769601665029691,-1.090811358972678,1
0.7279361140663553,-0.5452743814314491,-1.180634055663387,1
0.7583974696437153,-0.5135885963599292,-1.270456752354096,1
0.7888588252210754,-0.4819028112884091,-1.360279449044805,1
0.8193201807984355,-0.4502170262168891,-1.450102145735514,1
0.5328855858006996,-0.86157980166478,-0.5790476757026167,1
0.5633469413780596,-0.8298940165932602,-0.6688703723933256,1
0.5938082969554197,-0.79820823152174,-0.7586930690840344,1
0.6242696525327798,-0.7665224464502201,-0.8485157657747433,1
0.65473100811014,-0.7348366613787001,-0.9383384624654522,1
0.6851923636875,-0.7031508763071801,-1.028161159156161,1
0.7156537192648601,-0.6714650912356601,-1.11798385584687,1
0.7461150748422202,-0.6397793061641401,-1.207806552537579,1
0.7765764304195802,-0.6080935210926202,-1.297629249228287,1
0.8070377859969403,-0.5764077360211002,-1.387451945918996,1
0.8374991415743004,-0.5447219509495802,-1.477274642609705,1
0.5510645465765645,-0.9560847263974714,-0.6062201725768082,1
0.5815259021539245,-0.9243989413259512,-0.696042869267517,1
0.6119872577312846,-0.8927131562544313,-0.7858655659582258,1
0.6424486133086447,-0.8610273711829113,-0.8756882626489346,1
0.6729099688860049,-0.8293415861113913,-0.9655109593396435,1
0.7033713244633649,-0.7976558010398713,-1.055333656030352,1
0.733832680040725,-0.7659700159683513,-1.145156352721061,1
0.7642940356180851,-0.7342842308968314,-1.23497904941177,1
0.7947553911954451,-0.7025984458253114,-1.324801746102479,1
0.8252167467728052,-0.6709126607537914,-1.414624442793188,1
0.8556781023501653,-0.6392268756822714,-1.504447139483896,1
0.5692435073524293,-1.050589651130162,-0.6333926694509994,1
0.5997048629297894,-1.018903866058642,-0.7232153661417083,1
0.6301662185071495,-0.9872180809871223,-0.8130380628324171,1
0.6606275740845096,-0.9555322959156023,-0.9028607595231259,1
0.6910889296618696,-0.9238465108440823,-0.9926834562138348,1
0.7215502852392297,-0.8921607257725623,-1.082506152904544,1
0.7520116408165898,-0.8604749407010424,-1.172328849595252,1
0.7824729963939498,-0.8287891556295224,-1.262151546285961,1
0.8129343519713099,-0.7971033705580024,-1.35197424297667,1
0.84339570754867,-0.7654175854864824,-1.441796939667379,1
0.8738570631260302,-0.7337318004149624,-1.531619636358088,1
