0.5934099291905184,0.1956120882336652,-0.3018018977554506,1
0.5731414902078478,0.09987404647135861,-0.3223790146750923,1
0.5528730512251773,0.00413600470905201,-0.3429561315947339,1
0.5326046122425067,-0.09160203705325454,-0.3635332485143755,1
0.5123361732598362,-0.1873400788155611,-0.3841103654340171,1
0.4920677342771655,-0.2830781205778677,-0.4046874823536588,1
0.471799295294495,-0.3788161623401744,-0.4252645992733004,1
0.4515308563118244,-0.4745542041024809,-0.445841716192942,1
0.4312624173291539,-0.5702922458647874,-0.4664188331125837,1
0.4109939783464833,-0.666030287627094,-0.4869959500322253,1
0.3907255393638128,-0.7617683293894004,-0.5075730669518669,1
0.6025917182913675,0.1728333781783307,-0.2048646751981557,1
0.5823232793086969,0.07709533641602412,-0.2254417921177974,1
0.5620548403260264,-0.01864270534628248,-0.2460189090374389,1
0.5417864013433558,-0.1143807471085891,-0.2665960259570806,1
0.5215179623606853,-0.2101187888708956,-0.2871731428767222,1
0.5012495233780146,-0.3058568306332022,-0.3077502597963638,1
0.4809810843953441,-0.4015948723955089,-0.3283273767160054,1
0.4607126454126735,-0.4973329141578154,-0.3489044936356471,1
0.440444206430003,-0.5930709559201219,-0.3694816105552887,1
0.4201757674473324,-0.6888089976824285,-0.3900587274749303,1
0.3999073284646619,-0.7845470394447351,-0.4106358443945719,1
0.6117735073922166,0.1500546681229962,-0.1079274526408608,1
0.591505068409546,0.0543166263606896,-0.1285045695605024,1
0.5712366294268755,-0.04142141540161698,-0.149081686480144,1
0.5509681904442049,-0.1371594571639236,-0.1696588033997856,1
0.5306997514615344,-0.2328974989262301,-0.1902359203194273,1
0.5104313124788638,-0.3286355406885367,-0.2108130372390689,1
0.4901628734961933,-0.4243735824508434,-0.2313901541587105,1
0.4698944345135226,-0.5201116242131498,-0.2519672710783522,1
0.4496259955308521,-0.6158496659754564,-0.2725443879979937,1
0.4293575565481815,-0.711587707737763,-0.2931215049176354,1
0.409089117565511,-0.8073257495000694,-0.313698621837277,1
0.6209552964930657,0.1272759580676617,-0.01099023008356578,1
0.6006868575103951,0.03153791630535507,-0.03156734700320743,1
0.5804184185277246,-0.06420012545695153,-0.05214446392284908,1
0.560149979545054,-0.1599381672192581,-0.07272158084249067,1
0.5398815405623835,-0.2556762089815647,-0.09329869776213232,1
0.5196131015797129,-0.3514142507438712,-0.1138758146817739,1
0.4993446625970424,-0.4471522925061779,-0.1344529316014156,1
0.4790762236143717,-0.5428903342684843,-0.1550300485210572,1
0.4588077846317012,-0.6386283760307909,-0.1756071654406988,1
0.4385393456490306,-0.7343664177930975,-0.1961842823603404,1
0.4182709066663601,-0.8301044595554041,-0.216761399279982,1
0.6301370855939148,0.1044972480123271,0.08594699247372914,1
0.6098686466112442,0.008759206250020524,0.06536987555408749,1
0.5896002076285737,-0.08697883551228602,0.0447927586344459,1
0.5693317686459031,-0.1827168772745926,0.02421564171480425,1
0.5490633296632326,-0.2784549190368992,0.003638524795162607,1
0.5287948906805621,-0.3741929607992058,-0.01693859212447898,1
0.5085264516978915,-0.4699310025615125,-0.03751570904412063,1
0.4882580127152208,-0.565669044323819,-0.05809282596376225,1
0.4679895737325503,-0.6614070860861256,-0.07866994288340387,1
0.4477211347498797,-0.757145127848432,-0.09924705980304549,1
0.4274526957672092,-0.8528831696107384,-0.1198241767226871,1
0.6393188746947639,0.08171853795699263,0.1828842150310241,1
0.6190504357120933,-0.01401950380531397,0.1623070981113824,1
0.5987819967294228,-0.1097575455676206,0.1417299811917408,1
0.5785135577467522,-0.2054955873299272,0.1211528642720992,1
0.5582451187640817,-0.3012336290922337,0.1005757473524575,1
0.5379766797814111,-0.3969716708545403,0.07999863043281594,1
0.5177082407987406,-0.492709712616847,0.05942151351317429,1
0.4974398018160699,-0.5884477543791535,0.0388443965935327,1
0.4771713628333994,-0.6841857961414601,0.01826727967389105,1
0.4569029238507288,-0.7799238379037667,-0.002309837245750596,1
0.4366344848680583,-0.8756618796660731,-0.02288695416539219,1
0.648500663795613,0.05893982790165811,0.279821437588319,1
0.6282322248129425,-0.03679821386064847,0.2592443206686774,1
0.6079637858302719,-0.1325362556229551,0.2386672037490357,1
0.5876953468476013,-0.2282742973852617,0.2180900868293942,1
0.5674269078649308,-0.3240123391475682,0.1975129699097526,1
0.5471584688822603,-0.4197503809098748,0.1769358529901109,1
0.5268900298995897,-0.5154884226721814,0.1563587360704693,1
0.5066215909169191,-0.611226464434488,0.1357816191508277,1
0.4863531519342486,-0.7069645061967946,0.115204502231186,1
0.4660847129515779,-0.802702547959101,0.09462738531154438,1
0.4458162739689074,-0.8984405897214074,0.07405026839190279,1
0.6576824528964621,0.03616111784632359,0.376758660145614,1
0.6374140139137916,-0.05957692391598302,0.3561815432259724,1
0.617145574931121,-0.1553149656782896,0.3356044263063307,1
0.5968771359484504,-0.2510530074405962,0.3150273093866891,1
0.5766086969657799,-0.3467910492029028,0.2944501924670475,1
0.5563402579831094,-0.4425290909652093,0.2738730755474058,1
0.5360718190004388,-0.5382671327275159,0.2532959586277642,1
0.5158033800177682,-0.6340051744898225,0.2327188417081227,1
0.4955349410350977,-0.7297432162521289,0.212141724788481,1
0.475266502052427,-0.8254812580144357,0.1915646078688394,1
0.4549980630697565,-0.9212192997767421,0.1709874909491978,1
0.6668642419973112,0.01338240779098904,0.4736958827029089,1
0.6465958030146407,-0.08235563397131751,0.4531187657832673,1
0.6263273640319701,-0.1780936757336241,0.4325416488636256,1
0.6060589250492995,-0.2738317174959307,0.411964531943984,1
0.585790486066629,-0.3695697592582373,0.3913874150243424,1
0.5655220470839585,-0.4653078010205438,0.3708102981047007,1
0.5452536081012879,-0.5610458427828506,0.3502331811850591,1
0.5249851691186173,-0.656783884545157,0.3296560642654175,1
0.5047167301359468,-0.7525219263074636,0.3090789473457758,1
0.4844482911532761,-0.84825996806977,0.2885018304261342,1
0.4641798521706056,-0.9439980098320768,0.2679247135064926,1
0.6760460310981603,-0.009396302264345457,0.5706331052602037,1
0.6557775921154898,-0.105134344026652,0.5500559883405621,1
0.6355091531328192,-0.2008723857889586,0.5294788714209204,1
0.6152407141501486,-0.2966104275512652,0.5089017545012788,1
0.5949722751674781,-0.3923484693135718,0.4883246375816372,1
0.5747038361848076,-0.4880865110758782,0.4677475206619955,1
0.554435397202137,-0.5838245528381851,0.447170403742354,1
0.5341669582194664,-0.6795625946004915,0.4265932868227124,1
0.5138985192367959,-0.7753006363627979,0.4060161699030707,1
0.4936300802541252,-0.8710386781251047,0.3854390529834291,1
0.4733616412714547,-0.9667767198874111,0.3648619360637875,1
0.6852278201990094,-0.03217501231967995,0.6675703278174988,1
0.6649593812163389,-0.1279130540819866,0.6469932108978572,1
0.6446909422336683,-0.2236510958442932,0.6264160939782155,1
0.6244225032509977,-0.3193891376065998,0.6058389770585739,1
0.6041540642683272,-0.4151271793689064,0.5852618601389323,1
0.5838856252856567,-0.5108652211312128,0.5646847432192906,1
0.5636171863029861,-0.6066032628935196,0.544107626299649,1
0.5433487473203155,-0.702341304655826,0.5235305093800074,1
0.523080308337645,-0.7980793464181326,0.5029533924603657,1
0.5028118693549744,-0.893817388180439,0.4823762755407242,1
0.4825434303723038,-0.9895554299427458,0.4617991586210826,1
