2.599747554407561,0.5252955567330864,-0.03368213748219262,1
2.697507633276968,0.5365040799431686,-0.05149606425021648,1
2.795267712146374,0.5477126031532509,-0.06930999101824034,1
2.89302779101578,0.5589211263633331,-0.08712391778626422,1
2.990787869885186,0.5701296495734154,-0.1049378445542881,1
3.088547948754592,0.5813381727834976,-0.1227517713223119,1
3.186308027623999,0.5925466959935799,-0.1405656980903358,1
3.284068106493405,0.6037552192036622,-0.1583796248583597,1
3.381828185362811,0.6149637424137444,-0.1761935516263835,1
3.479588264232218,0.6261722656238267,-0.1940074783944074,1
3.577348343101624,0.6373807888339089,-0.2118214051624312,1
2.617511763175961,0.5267444060705939,0.06471671272668886,1
2.715271842045368,0.5379529292806762,0.04690278595866501,1
2.813031920914774,0.5491614524907584,0.02908885919064114,1
2.91079199978418,0.5603699757008407,0.01127493242261729,1
3.008552078653587,0.5715784989109229,-0.006538994345406585,1
3.106312157522993,0.5827870221210052,-0.02435292111343043,1
3.204072236392399,0.5939955453310874,-0.04216684788145432,1
3.301832315261806,0.6052040685411697,-0.05998077464947817,1
3.399592394131212,0.616412591751252,-0.07779470141750204,1
3.497352473000618,0.6276211149613342,-0.09560862818552589,1
3.595112551870024,0.6388296381714165,-0.1134225549535497,1
2.635275971944361,0.5281932554081014,0.1631155629355704,1
2.733036050813768,0.5394017786181836,0.1453016361675465,1
2.830796129683174,0.550610301828266,0.1274877093995226,1
2.92855620855258,0.5618188250383482,0.1096737826314988,1
3.026316287421987,0.5730273482484305,0.09185985586347492,1
3.124076366291393,0.5842358714585127,0.07404592909545107,1
3.221836445160799,0.595444394668595,0.05623200232742717,1
3.319596524030206,0.6066529178786773,0.03841807555940333,1
3.417356602899612,0.6178614410887595,0.02060414879137945,1
3.515116681769018,0.6290699642988418,0.002790222023355604,1
3.612876760638424,0.640278487508924,-0.01502370474466824,1
2.653040180712762,0.5296421047456089,0.2615144131444519,1
2.750800259582168,0.5408506279556912,0.2437004863764281,1
2.848560338451574,0.5520591511657734,0.2258865596084042,1
2.94632041732098,0.5632676743758557,0.2080726328403804,1
3.044080496190387,0.5744761975859379,0.1902587060723565,1
3.141840575059793,0.5856847207960202,0.1724447793043326,1
3.239600653929199,0.5968932440061024,0.1546308525363087,1
3.337360732798606,0.6081017672161847,0.1368169257682849,1
3.435120811668012,0.619310290426267,0.119002999000261,1
3.532880890537418,0.6305188136363492,0.1011890722322372,1
3.630640969406824,0.6417273368464315,0.08337514546421335,1
2.670804389481162,0.5310909540831164,0.3599132633533334,1
2.768564468350568,0.5422994772931986,0.3420993365853096,1
2.866324547219974,0.5535080005032809,0.3242854098172857,1
2.964084626089381,0.5647165237133631,0.3064714830492619,1
3.061844704958787,0.5759250469234454,0.288657556281238,1
3.159604783828193,0.5871335701335276,0.2708436295132141,1
3.2573648626976,0.5983420933436099,0.2530297027451902,1
3.355124941567006,0.6095506165536921,0.2352157759771663,1
3.452885020436412,0.6207591397637744,0.2174018492091425,1
3.550645099305819,0.6319676629738566,0.1995879224411186,1
3.648405178175225,0.6431761861839389,0.1817739956730948,1
2.688568598249562,0.5325398034206239,0.4583121135622148,1
2.786328677118969,0.5437483266307062,0.4404981867941909,1
2.884088755988375,0.5549568498407884,0.4226842600261671,1
2.981848834857781,0.5661653730508707,0.4048703332581433,1
3.079608913727187,0.5773738962609529,0.3870564064901193,1
3.177368992596593,0.5885824194710352,0.3692424797220956,1
3.275129071466,0.5997909426811174,0.3514285529540716,1
3.372889150335406,0.6109994658911997,0.3336146261860479,1
3.470649229204812,0.6222079891012819,0.3158006994180239,1
3.568409308074219,0.6334165123113642,0.2979867726500001,1
3.666169386943625,0.6446250355214465,0.2801728458819762,1
2.706332807017962,0.5339886527581313,0.5567109637710964,1
2.804092885887369,0.5451971759682137,0.5388970370030727,1
2.901852964756775,0.556405699178296,0.5210831102350487,1
2.999613043626181,0.5676142223883782,0.5032691834670248,1
3.097373122495588,0.5788227455984605,0.485455256699001,1
3.195133201364994,0.5900312688085427,0.4676413299309771,1
3.2928932802344,0.601239792018625,0.4498274031629533,1
3.390653359103806,0.6124483152287072,0.4320134763949294,1
3.488413437973212,0.6236568384387895,0.4141995496269055,1
3.586173516842619,0.6348653616488718,0.3963856228588817,1
3.683933595712025,0.646073884858954,0.3785716960908578,1
2.724097015786362,0.5354375020956389,0.6551098139799779,1
2.821857094655769,0.5466460253057212,0.6372958872119542,1
2.919617173525175,0.5578545485158034,0.6194819604439302,1
3.017377252394581,0.5690630717258857,0.6016680336759063,1
3.115137331263988,0.5802715949359679,0.5838541069078825,1
3.212897410133394,0.5914801181460502,0.5660401801398586,1
3.3106574890028,0.6026886413561324,0.5482262533718348,1
3.408417567872207,0.6138971645662147,0.5304123266038109,1
3.506177646741613,0.6251056877762969,0.5125983998357871,1
3.603937725611019,0.6363142109863792,0.4947844730677632,1
3.701697804480425,0.6475227341964614,0.4769705462997393,1
2.741861224554763,0.5368863514331463,0.7535086641888594,1
2.839621303424169,0.5480948746432286,0.7356947374208355,1
2.937381382293575,0.5593033978533108,0.7178808106528115,1
3.035141461162981,0.5705119210633931,0.7000668838847878,1
3.132901540032388,0.5817204442734754,0.6822529571167638,1
3.230661618901794,0.5929289674835576,0.6644390303487401,1
3.3284216977712,0.6041374906936399,0.6466251035807161,1
3.426181776640607,0.6153460139037221,0.6288111768126924,1
3.523941855510013,0.6265545371138044,0.6109972500446684,1
3.621701934379419,0.6377630603238866,0.5931833232766447,1
3.719462013248825,0.6489715835339689,0.5753693965086207,1
2.759625433323163,0.5383352007706539,0.8519075143977409,1
2.857385512192569,0.5495437239807361,0.834093587629717,1
2.955145591061975,0.5607522471908184,0.816279660861693,1
3.052905669931382,0.5719607704009007,0.7984657340936693,1
3.150665748800788,0.5831692936109829,0.7806518073256453,1
3.248425827670194,0.5943778168210652,0.7628378805576216,1
3.3461859065396,0.6055863400311474,0.7450239537895976,1
3.443945985409007,0.6167948632412297,0.7272100270215739,1
3.541706064278413,0.6280033864513119,0.7093961002535499,1
3.639466143147819,0.6392119096613942,0.6915821734855262,1
3.737226222017225,0.6504204328714764,0.6737682467175022,1
2.777389642091563,0.5397840501081614,0.9503063646066224,1
2.875149720960969,0.5509925733182437,0.9324924378385985,1
2.972909799830375,0.5622010965283259,0.9146785110705745,1
3.070669878699782,0.5734096197384082,0.8968645843025508,1
3.168429957569188,0.5846181429484905,0.8790506575345268,1
3.266190036438594,0.5958266661585727,0.8612367307665031,1
3.363950115308001,0.607035189368655,0.8434228039984791,1
3.461710194177407,0.6182437125787372,0.8256088772304554,1
3.559470273046813,0.6294522357888195,0.8077949504624314,1
3.657230351916219,0.6406607589989017,0.7899810236944077,1
3.754990430785626,0.651869282208984,0.7721670969263837,1
