1.14756209488063,0.2556948720092906,-0.1380940330044208,1
1.226852154899156,0.2375663910408347,-0.1962700122401407,1
1.306142214917681,0.2194379100723787,-0.2544459914758606,1
1.385432274936207,0.2013094291039227,-0.3126219707115804,1
1.464722334954733,0.1831809481354668,-0.3707979499473003,1
1.544012394973259,0.1650524671670109,-0.4289739291830201,1
1.623302454991784,0.1469239861985549,-0.4871499084187401,1
1.702592515010311,0.1287955052300989,-0.54532588765446,1
1.781882575028836,0.110667024261643,-0.6035018668901798,1
1.861172635047362,0.09253854329318703,-0.6616778461258997,1
1.940462695065888,0.07441006232473107,-0.7198538253616197,1
1.172558247273233,0.1783017019226907,-0.07990907283847759,1
1.251848307291759,0.1601732209542348,-0.1380850520741975,1
1.331138367310284,0.1420447399857789,-0.1962610313099173,1
1.41042842732881,0.1239162590173229,-0.2544370105456373,1
1.489718487347336,0.105787778048867,-0.3126129897813571,1
1.569008547365862,0.08765929708041101,-0.3707889690170769,1
1.648298607384387,0.06953081611195505,-0.4289649482527969,1
1.727588667402913,0.05140233514349907,-0.4871409274885168,1
1.806878727421439,0.03327385417504314,-0.5453169067242366,1
1.886168787439965,0.01514537320658721,-0.6034928859599564,1
1.96545884745849,-0.002983107761868775,-0.6616688651956765,1
1.197554399665836,0.1009085318360909,-0.02172411267253438,1
1.276844459684361,0.08278005086763493,-0.07990009190825427,1
1.356134519702887,0.06465156989917897,-0.1380760711439741,1
1.435424579721413,0.04652308893072304,-0.196252050379694,1
1.514714639739939,0.02839460796226706,-0.2544280296154139,1
1.594004699758464,0.01026612699381113,-0.3126040088511337,1
1.67329475977699,-0.007862353974644798,-0.3707799880868536,1
1.752584819795516,-0.02599083494310078,-0.4289559673225736,1
1.831874879814042,-0.04411931591155671,-0.4871319465582934,1
1.911164939832568,-0.06224779688001264,-0.5453079257940132,1
1.990454999851093,-0.08037627784846862,-0.6034839050297331,1
1.222550552058439,0.02351536174949104,0.0364608474934088,1
1.301840612076964,0.005386880781035053,-0.02171513174231107,1
1.38113067209549,-0.01274160018742088,-0.07989111097803095,1
1.460420732114016,-0.03087008115587681,-0.1380670902137508,1
1.539710792132542,-0.04899856212433279,-0.1962430694494707,1
1.619000852151067,-0.06712704309278872,-0.2544190486851906,1
1.698290912169593,-0.08525552406124465,-0.3125950279209105,1
1.777580972188119,-0.1033840050297006,-0.3707710071566304,1
1.856871032206645,-0.1215124859981566,-0.4289469863923502,1
1.93616109222517,-0.1396409669666125,-0.48712296562807,1
2.015451152243696,-0.1577694479350685,-0.5452989448637899,1
1.247546704451041,-0.05387780833710881,0.09464580765935199,1
1.326836764469567,-0.07200628930556474,0.03646982842363211,1
1.406126824488093,-0.09013477027402073,-0.02170615081208777,1
1.485416884506619,-0.1082632512424767,-0.07988213004780764,1
1.564706944525144,-0.1263917322109326,-0.1380581092835275,1
1.64399700454367,-0.1445202131793886,-0.1962340885192474,1
1.723287064562196,-0.1626486941478445,-0.2544100677549673,1
1.802577124580722,-0.1807771751163005,-0.3125860469906871,1
1.881867184599248,-0.1989056560847564,-0.3707620262264071,1
1.961157244617773,-0.2170341370532123,-0.4289380054621269,1
2.040447304636299,-0.2351626180216683,-0.4871139846978468,1
1.272542856843644,-0.1312709784237087,0.1528307678252952,1
1.35183291686217,-0.1493994593921646,0.09465478858957532,1
1.431122976880696,-0.1675279403606206,0.03647880935385545,1
1.510413036899222,-0.1856564213290765,-0.02169716988186443,1
1.589703096917747,-0.2037849022975325,-0.07987314911758431,1
1.668993156936273,-0.2219133832659884,-0.1380491283533042,1
1.748283216954799,-0.2400418642344443,-0.1962251075890241,1
1.827573276973325,-0.2581703452029003,-0.2544010868247439,1
1.906863336991851,-0.2762988261713563,-0.3125770660604639,1
1.986153397010376,-0.2944273071398122,-0.3707530452961837,1
2.065443457028902,-0.3125557881082682,-0.4289290245319036,1
1.297539009236247,-0.2086641485103085,0.2110157279912385,1
1.376829069254773,-0.2267926294787645,0.1528397487555186,1
1.456119129273299,-0.2449211104472205,0.09466376951979871,1
1.535409189291824,-0.2630495914156765,0.03648779028407884,1
1.61469924931035,-0.2811780723841323,-0.02168818895164104,1
1.693989309328876,-0.2993065533525883,-0.07986416818736089,1
1.773279369347402,-0.3174350343210443,-0.1380401474230808,1
1.852569429365928,-0.3355635152895002,-0.1962161266588007,1
1.931859489384454,-0.3536919962579562,-0.2543921058945205,1
2.011149549402979,-0.3718204772264121,-0.3125680851302404,1
2.090439609421505,-0.389948958194868,-0.3707440643659603,1
1.32253516162885,-0.2860573185969084,0.2692006881571817,1
1.401825221647376,-0.3041857995653643,0.2110247089214617,1
1.481115281665902,-0.3223142805338202,0.1528487296857419,1
1.560405341684427,-0.3404427615022762,0.09467275045002199,1
1.639695401702953,-0.3585712424707322,0.03649677121430212,1
1.718985461721479,-0.3766997234391881,-0.02167920802141773,1
1.798275521740005,-0.394828204407644,-0.07985518725713767,1
1.877565581758531,-0.4129566853761,-0.1380311664928575,1
1.956855641777056,-0.431085166344556,-0.1962071457285774,1
2.036145701795582,-0.4492136473130119,-0.2543831249642973,1
2.115435761814108,-0.4673421282814679,-0.3125591042000172,1
1.347531314021453,-0.3634504886835082,0.3273856483231249,1
1.426821374039979,-0.3815789696519642,0.269209669087405,1
1.506111434058504,-0.3997074506204201,0.2110336898516851,1
1.58540149407703,-0.4178359315888761,0.1528577106159652,1
1.664691554095556,-0.435964412557332,0.09468173138024533,1
1.743981614114082,-0.4540928935257879,0.03650575214452548,1
1.823271674132608,-0.4722213744942439,-0.02167022709119446,1
1.902561734151134,-0.4903498554626999,-0.07984620632691433,1
1.981851794169659,-0.5084783364311558,-0.1380221855626342,1
2.061141854188185,-0.5266068173996117,-0.196198164798354,1
2.140431914206711,-0.5447352983680678,-0.254374144034074,1
1.372527466414056,-0.4408436587701081,0.3855706084890679,1
1.451817526432582,-0.458972139738564,0.3273946292533482,1
1.531107586451107,-0.4771006207070199,0.2692186500176282,1
1.610397646469633,-0.4952291016754759,0.2110426707819084,1
1.689687706488159,-0.5133575826439318,0.1528666915461885,1
1.768977766506685,-0.5314860636123877,0.09469071231046863,1
1.848267826525211,-0.5496145445808438,0.0365147330747487,1
1.927557886543736,-0.5677430255492997,-0.02166124616097118,1
2.006847946562262,-0.5858715065177558,-0.07983722539669105,1
2.086138006580788,-0.6039999874862116,-0.1380132046324109,1
2.165428066599314,-0.6221284684546675,-0.1961891838681308,1
1.397523618806659,-0.5182368288567079,0.4437555686550111,1
1.476813678825184,-0.5363653098251639,0.3855795894192914,1
1.55610373884371,-0.5544937907936198,0.3274036101835714,1
1.635393798862236,-0.5726222717620757,0.2692276309478516,1
1.714683858880762,-0.5907507527305318,0.2110516517121317,1
1.793973918899288,-0.6088792336989877,0.1528756724764118,1
1.873263978917814,-0.6270077146674435,0.09469969324069191,1
1.952554038936339,-0.6451361956358996,0.03652371400497204,1
2.031844098954865,-0.6632646766043555,-0.02165226523074784,1
2.111134158973391,-0.6813931575728114,-0.07982824446646766,1
2.190424218991917,-0.6995216385412675,-0.1380042237021876,1
