2.862390385676765,0.1083187708866201,-0.5677218950900951,1
2.948591689871014,0.09665682794155203,-0.6170507329231162,1
3.034792994065263,0.08499488499648397,-0.6663795707561374,1
3.120994298259512,0.07333294205141591,-0.7157084085891586,1
3.207195602453762,0.06167099910634785,-0.7650372464221799,1
3.293396906648011,0.05000905616127982,-0.8143660842552009,1
3.37959821084226,0.0383471132162117,-0.8636949220882221,1
3.465799515036509,0.02668517027114364,-0.9130237599212433,1
3.552000819230758,0.01502322732607564,-0.9623525977542645,1
3.638202123425007,0.003361284381007579,-1.011681435587286,1
3.724403427619257,-0.008300658564060481,-1.061010273420307,1
2.814325643744278,0.05860814613865026,-0.6399620111623298,1
2.900526947938527,0.04694620319358217,-0.689290848995351,1
2.986728252132776,0.03528426024851411,-0.7386196868283722,1
3.072929556327025,0.02362231730344605,-0.7879485246613934,1
3.159130860521274,0.01196037435837799,-0.8372773624944145,1
3.245332164715524,0.0002984314133099852,-0.8866062003274356,1
3.331533468909773,-0.01136351153175813,-0.9359350381604569,1
3.417734773104022,-0.02302545447682619,-0.9852638759934781,1
3.503936077298271,-0.03468739742189419,-1.034592713826499,1
3.59013738149252,-0.04634934036696226,-1.08392155165952,1
3.676338685686769,-0.05801128331203032,-1.133250389492542,1
2.766260901811791,0.008897521390680396,-0.7122021272345646,1
2.85246220600604,-0.002764421554387664,-0.7615309650675857,1
2.938663510200289,-0.01442636449945572,-0.8108598029006069,1
3.024864814394538,-0.02608830744452378,-0.8601886407336281,1
3.111066118588787,-0.03775025038959179,-0.9095174785666492,1
3.197267422783037,-0.04941219333465985,-0.9588463163996704,1
3.283468726977286,-0.06107413627972791,-1.008175154232692,1
3.369670031171535,-0.07273607922479597,-1.057503992065713,1
3.455871335365784,-0.08439802216986403,-1.106832829898734,1
3.542072639560033,-0.09605996511493209,-1.156161667731755,1
3.628273943754282,-0.1077219080600001,-1.205490505564776,1
2.718196159879303,-0.04081310335728944,-0.7844422433067992,1
2.804397464073553,-0.0524750463023575,-0.8337710811398203,1
2.890598768267802,-0.06413698924742556,-0.8830999189728416,1
2.976800072462051,-0.07579893219249362,-0.9324287568058628,1
3.0630013766563,-0.08746087513756162,-0.981757594638884,1
3.14920268085055,-0.09912281808262968,-1.031086432471905,1
3.235403985044798,-0.1107847610276977,-1.080415270304926,1
3.321605289239048,-0.1224467039727658,-1.129744108137948,1
3.407806593433297,-0.1341086469178339,-1.179072945970969,1
3.494007897627546,-0.1457705898629019,-1.22840178380399,1
3.580209201821795,-0.15743253280797,-1.277730621637011,1
2.670131417946816,-0.09052372810525922,-0.8566823593790339,1
2.756332722141066,-0.1021856710503273,-0.9060111972120551,1
2.842534026335315,-0.1138476139953953,-0.9553400350450763,1
2.928735330529564,-0.1255095569404634,-1.004668872878097,1
3.014936634723813,-0.1371714998855315,-1.053997710711119,1
3.101137938918062,-0.1488334428305995,-1.10332654854414,1
3.187339243112311,-0.1604953857756676,-1.152655386377161,1
3.273540547306561,-0.1721573287207356,-1.201984224210182,1
3.35974185150081,-0.1838192716658036,-1.251313062043203,1
3.445943155695059,-0.1954812146108717,-1.300641899876224,1
3.532144459889308,-0.2071431575559398,-1.349970737709246,1
2.622066676014329,-0.140234352853229,-0.9289224754512687,1
2.708267980208579,-0.1518962957982971,-0.9782513132842898,1
2.794469284402828,-0.1635582387433652,-1.027580151117311,1
2.880670588597077,-0.1752201816884332,-1.076908988950332,1
2.966871892791326,-0.1868821246335013,-1.126237826783353,1
3.053073196985575,-0.1985440675785693,-1.175566664616374,1
3.139274501179824,-0.2102060105236375,-1.224895502449395,1
3.225475805374074,-0.2218679534687054,-1.274224340282417,1
3.311677109568322,-0.2335298964137735,-1.323553178115438,1
3.397878413762572,-0.2451918393588415,-1.372882015948459,1
3.484079717956821,-0.2568537823039096,-1.42221085378148,1
2.574001934081842,-0.1899449776011989,-1.001162591523503,1
2.660203238276091,-0.201606920546267,-1.050491429356525,1
2.74640454247034,-0.2132688634913349,-1.099820267189546,1
2.83260584666459,-0.2249308064364031,-1.149149105022567,1
2.918807150858839,-0.2365927493814711,-1.198477942855588,1
3.005008455053088,-0.2482546923265392,-1.247806780688609,1
3.091209759247337,-0.2599166352716072,-1.29713561852163,1
3.177411063441586,-0.2715785782166754,-1.346464456354652,1
3.263612367635835,-0.2832405211617433,-1.395793294187673,1
3.349813671830085,-0.2949024641068114,-1.445122132020694,1
3.436014976024334,-0.3065644070518794,-1.494450969853715,1
2.525937192149355,-0.2396556023491688,-1.073402707595738,1
2.612138496343604,-0.2513175452942367,-1.122731545428759,1
2.698339800537853,-0.2629794882393049,-1.17206038326178,1
2.784541104732102,-0.2746414311843728,-1.221389221094802,1
2.870742408926352,-0.286303374129441,-1.270718058927823,1
2.956943713120601,-0.297965317074509,-1.320046896760844,1
3.04314501731485,-0.3096272600195771,-1.369375734593865,1
3.129346321509099,-0.3212892029646451,-1.418704572426886,1
3.215547625703348,-0.3329511459097131,-1.468033410259908,1
3.301748929897597,-0.3446130888547812,-1.517362248092929,1
3.387950234091847,-0.3562750317998493,-1.56669108592595,1
2.477872450216868,-0.2893662270971385,-1.145642823667973,1
2.564073754411117,-0.3010281700422067,-1.194971661500994,1
2.650275058605366,-0.3126901129872746,-1.244300499334015,1
2.736476362799615,-0.3243520559323428,-1.293629337167036,1
2.822677666993865,-0.3360139988774107,-1.342958175000057,1
2.908878971188114,-0.3476759418224789,-1.392287012833079,1
2.995080275382363,-0.3593378847675469,-1.4416158506661,1
3.081281579576612,-0.370999827712615,-1.490944688499121,1
3.167482883770861,-0.382661770657683,-1.540273526332142,1
3.25368418796511,-0.394323713602751,-1.589602364165164,1
3.339885492159359,-0.4059856565478191,-1.638931201998185,1
2.429807708284381,-0.3390768518451083,-1.217882939740207,1
2.51600901247863,-0.3507387947901764,-1.267211777573229,1
2.602210316672879,-0.3624007377352444,-1.31654061540625,1
2.688411620867128,-0.3740626806803125,-1.365869453239271,1
2.774612925061378,-0.3857246236253806,-1.415198291072292,1
2.860814229255626,-0.3973865665704486,-1.464527128905313,1
2.947015533449876,-0.4090485095155167,-1.513855966738335,1
3.033216837644125,-0.4207104524605847,-1.563184804571356,1
3.119418141838374,-0.4323723954056528,-1.612513642404377,1
3.205619446032623,-0.4440343383507209,-1.661842480237398,1
3.291820750226872,-0.4556962812957889,-1.711171318070419,1
2.381742966351894,-0.3887874765930781,-1.290123055812442,1
2.467944270546143,-0.4004494195381461,-1.339451893645463,1
2.554145574740392,-0.4121113624832142,-1.388780731478485,1
2.640346878934641,-0.4237733054282822,-1.438109569311506,1
2.72654818312889,-0.4354352483733503,-1.487438407144527,1
2.812749487323139,-0.4470971913184184,-1.536767244977548,1
2.898950791517389,-0.4587591342634864,-1.586096082810569,1
2.985152095711638,-0.4704210772085545,-1.63542492064359,1
3.071353399905887,-0.4820830201536225,-1.684753758476611,1
3.157554704100136,-0.4937449630986906,-1.734082596309633,1
3.243756008294385,-0.5054069060437587,-1.783411434142654,1
