2.98674627352226,0.6230995972839799,-0.09253167668555692,1
2.946830527247507,0.6361112724435771,-0.1832919626528823,1
2.906914780972754,0.6491229476031743,-0.2740522486202077,1
2.866999034698001,0.6621346227627716,-0.3648125345875332,1
2.827083288423248,0.6751462979223688,-0.4555728205548585,1
2.787167542148496,0.688157973081966,-0.5463331065221838,1
2.747251795873743,0.7011696482415632,-0.6370933924895092,1
2.70733604959899,0.7141813234011605,-0.7278536784568347,1
2.667420303324237,0.7271929985607577,-0.81861396442416,1
2.627504557049484,0.7402046737203549,-0.9093742503914853,1
2.587588810774732,0.7532163488799521,-1.000134536358811,1
3.031845003538042,0.539700149569373,-0.1243221889787262,1
2.991929257263289,0.5527118247289702,-0.2150824749460516,1
2.952013510988536,0.5657234998885674,-0.305842760913377,1
2.912097764713783,0.5787351750481646,-0.3966030468807024,1
2.87218201843903,0.5917468502077619,-0.4873633328480278,1
2.832266272164278,0.6047585253673591,-0.5781236188153531,1
2.792350525889525,0.6177702005269563,-0.6688839047826786,1
2.752434779614772,0.6307818756865536,-0.7596441907500039,1
2.71251903334002,0.6437935508461509,-0.8504044767173292,1
2.672603287065267,0.6568052260057481,-0.9411647626846548,1
2.632687540790514,0.6698169011653453,-1.03192504865198,1
3.076943733553824,0.456300701854766,-0.1561127012718954,1
3.037027987279071,0.4693123770143632,-0.2468729872392208,1
2.997112241004318,0.4823240521739605,-0.3376332732065462,1
2.957196494729565,0.4953357273335578,-0.4283935591738717,1
2.917280748454813,0.508347402493155,-0.519153845141197,1
2.87736500218006,0.5213590776527522,-0.6099141311085223,1
2.837449255905307,0.5343707528123495,-0.7006744170758478,1
2.797533509630554,0.5473824279719467,-0.7914347030431731,1
2.757617763355801,0.560394103131544,-0.8821949890104984,1
2.717702017081049,0.5734057782911413,-0.972955274977824,1
2.677786270806296,0.5864174534507385,-1.063715560945149,1
3.122042463569606,0.3729012541401591,-0.1879032135650647,1
3.082126717294853,0.3859129292997563,-0.2786634995323901,1
3.0422109710201,0.3989246044593536,-0.3694237854997156,1
3.002295224745347,0.4119362796189509,-0.4601840714670409,1
2.962379478470595,0.4249479547785481,-0.5509443574343663,1
2.922463732195842,0.4379596299381453,-0.6417046434016916,1
2.882547985921089,0.4509713050977425,-0.7324649293690172,1
2.842632239646337,0.4639829802573397,-0.8232252153363425,1
2.802716493371584,0.476994655416937,-0.9139855013036678,1
2.762800747096831,0.4900063305765343,-1.004745787270993,1
2.722885000822078,0.5030180057361315,-1.095506073238318,1
3.167141193585388,0.2895018064255522,-0.219693725858234,1
3.127225447310635,0.3025134815851495,-0.3104540118255593,1
3.087309701035883,0.3155251567447467,-0.4012142977928848,1
3.04739395476113,0.3285368319043439,-0.4919745837602102,1
3.007478208486377,0.3415485070639412,-0.5827348697275355,1
2.967562462211624,0.3545601822235384,-0.6734951556948608,1
2.927646715936871,0.3675718573831356,-0.7642554416621864,1
2.887730969662119,0.3805835325427329,-0.8550157276295117,1
2.847815223387366,0.3935952077023301,-0.9457760135968371,1
2.807899477112613,0.4066068828619274,-1.036536299564162,1
2.76798373083786,0.4196185580215246,-1.127296585531488,1
3.21223992360117,0.2061023587109453,-0.2514842381514032,1
3.172324177326417,0.2191140338705426,-0.3422445241187286,1
3.132408431051664,0.2321257090301398,-0.433004810086054,1
3.092492684776912,0.245137384189737,-0.5237650960533794,1
3.052576938502159,0.2581490593493343,-0.6145253820207047,1
3.012661192227406,0.2711607345089315,-0.7052856679880301,1
2.972745445952653,0.2841724096685287,-0.7960459539553556,1
2.9328296996779,0.297184084828126,-0.8868062399226809,1
2.892913953403148,0.3101957599877233,-0.9775665258900063,1
2.852998207128395,0.3232074351473205,-1.068326811857332,1
2.813082460853642,0.3362191103069177,-1.159087097824657,1
3.257338653616952,0.1227029109963383,-0.2832747504445725,1
3.2174229073422,0.1357145861559356,-0.3740350364118979,1
3.177507161067447,0.1487262613155328,-0.4647953223792233,1
3.137591414792694,0.1617379364751301,-0.5555556083465487,1
3.097675668517941,0.1747496116347274,-0.646315894313874,1
3.057759922243188,0.1877612867943246,-0.7370761802811995,1
3.017844175968436,0.2007729619539218,-0.827836466248525,1
2.977928429693683,0.213784637113519,-0.9185967522158504,1
2.93801268341893,0.2267963122731163,-1.009357038183176,1
2.898096937144177,0.2398079874327135,-1.100117324150501,1
2.858181190869424,0.2528196625923108,-1.190877610117826,1
3.302437383632734,0.03930346328173151,-0.3150652627377418,1
3.262521637357982,0.05231513844132873,-0.4058255487050672,1
3.222605891083229,0.06532681360092596,-0.4965858346723926,1
3.182690144808476,0.07833848876052318,-0.5873461206397179,1
3.142774398533723,0.09135016392012041,-0.6781064066070434,1
3.10285865225897,0.1043618390797176,-0.7688666925743687,1
3.062942905984217,0.1173735142393149,-0.8596269785416942,1
3.023027159709465,0.1303851893989122,-0.9503872645090196,1
2.983111413434712,0.1433968645585094,-1.041147550476345,1
2.94319566715996,0.1564085397181066,-1.13190783644367,1
2.903279920885207,0.1694202148777039,-1.222668122410995,1
3.347536113648516,-0.04409598443287543,-0.346855775030911,1
3.307620367373763,-0.03108430927327821,-0.4376160609982364,1
3.267704621099011,-0.01807263411368099,-0.5283763469655618,1
3.227788874824258,-0.005060958954083761,-0.6191366329328872,1
3.187873128549505,0.007950716205513464,-0.7098969189002126,1
3.147957382274753,0.02096239136511069,-0.8006572048675379,1
3.108041636,0.03397406652470802,-0.8914174908348634,1
3.068125889725247,0.04698574168430525,-0.9821777768021888,1
3.028210143450494,0.05999741684390247,-1.072938062769514,1
2.988294397175741,0.0730090920034997,-1.163698348736839,1
2.948378650900989,0.08602076716309692,-1.254458634704165,1
3.392634843664299,-0.1274954321474823,-0.3786462873240802,1
3.352719097389546,-0.114483756987885,-0.4694065732914057,1
3.312803351114793,-0.1014720818282878,-0.560166859258731,1
3.27288760484004,-0.08846040666869059,-0.6509271452260564,1
3.232971858565287,-0.07544873150909337,-0.7416874311933818,1
3.193056112290535,-0.06243705634949615,-0.8324477171607071,1
3.153140366015782,-0.04942538118989881,-0.9232080031280326,1
3.113224619741029,-0.03641370603030158,-1.013968289095358,1
3.073308873466276,-0.02340203087070436,-1.104728575062683,1
3.033393127191524,-0.01039035571110714,-1.195488861030009,1
2.993477380916771,0.002621319448490089,-1.286249146997334,1
3.43773357368008,-0.2108948798620892,-0.4104367996172495,1
3.397817827405328,-0.1978832047024919,-0.5011970855845749,1
3.357902081130575,-0.1848715295428947,-0.5919573715519003,1
3.317986334855822,-0.1718598543832974,-0.6827176575192256,1
3.278070588581069,-0.1588481792237002,-0.7734779434865512,1
3.238154842306317,-0.145836504064103,-0.8642382294538765,1
3.198239096031564,-0.1328248289045056,-0.9549985154212018,1
3.158323349756811,-0.1198131537449084,-1.045758801388527,1
3.118407603482058,-0.1068014785853112,-1.136519087355852,1
3.078491857207306,-0.09378980342571397,-1.227279373323178,1
3.038576110932553,-0.08077812826611674,-1.318039659290503,1
