0.6872813559437342,0.04017584113955619,-0.4960044448714688,1
0.7310100927675893,0.03426599071028913,-0.5857422364851123,1
0.7747388295914445,0.02835614028102201,-0.6754800280987557,1
0.8184675664152997,0.02244628985175495,-0.7652178197123992,1
0.8621963032391549,0.01653643942248784,-0.8549556113260427,1
0.90592504006301,0.01062658899322078,-0.9446934029396862,1
0.9496537768868653,0.00471673856395366,-1.03443119455333,1
0.9933825137107203,-0.001193111865313401,-1.124168986166973,1
1.037111250534575,-0.007102962294580462,-1.213906777780617,1
1.08083998735843,-0.01301281272384758,-1.30364456939426,1
1.124568724182286,-0.01892266315311464,-1.393382361007903,1
0.7215495216675206,-0.0509850071374261,-0.4733021859673835,1
0.7652782584913759,-0.05689485756669316,-0.563039977581027,1
0.809006995315231,-0.06280470799596027,-0.6527777691946705,1
0.8527357321390862,-0.06871455842522733,-0.7425155608083139,1
0.8964644689629413,-0.07462440885449445,-0.8322533524219574,1
0.9401932057867964,-0.08053425928376151,-0.9219911440356009,1
0.9839219426106517,-0.08644410971302857,-1.011728935649244,1
1.027650679434507,-0.09235396014229569,-1.101466727262888,1
1.071379416258362,-0.0982638105715628,-1.191204518876531,1
1.115108153082217,-0.1041736610008299,-1.280942310490175,1
1.158836889906072,-0.1100835114300969,-1.370680102103818,1
0.7558176873913072,-0.1421458554144084,-0.4505999270632982,1
0.7995464242151623,-0.1480557058436755,-0.5403377186769417,1
0.8432751610390175,-0.1539655562729426,-0.6300755102905852,1
0.8870038978628726,-0.1598754067022097,-0.7198133019042287,1
0.9307326346867278,-0.1657852571314767,-0.8095510935178721,1
0.9744613715105829,-0.1716951075607439,-0.8992888851315156,1
1.018190108334438,-0.1776049579900109,-0.9890266767451592,1
1.061918845158293,-0.183514808419278,-1.078764468358803,1
1.105647581982148,-0.1894246588485451,-1.168502259972446,1
1.149376318806004,-0.1953345092778122,-1.258240051586089,1
1.193105055629859,-0.2012443597070793,-1.347977843199733,1
0.7900858531150936,-0.2333067036913908,-0.4278976681592129,1
0.8338145899389487,-0.2392165541206577,-0.5176354597728564,1
0.877543326762804,-0.2451264045499249,-0.6073732513864999,1
0.9212720635866591,-0.251036254979192,-0.6971110430001434,1
0.9650008004105143,-0.256946105408459,-0.7868488346137869,1
1.008729537234369,-0.2628559558377262,-0.8765866262274303,1
1.052458274058225,-0.2687658062669933,-0.9663244178410739,1
1.09618701088208,-0.2746756566962603,-1.056062209454717,1
1.139915747705935,-0.2805855071255274,-1.145800001068361,1
1.18364448452979,-0.2864953575547944,-1.235537792682004,1
1.227373221353645,-0.2924052079840616,-1.325275584295648,1
0.8243540188388802,-0.324467551968373,-0.4051954092551275,1
0.8680827556627353,-0.3303774023976401,-0.4949332008687711,1
0.9118114924865904,-0.3362872528269072,-0.5846709924824146,1
0.9555402293104457,-0.3421971032561742,-0.6744087840960581,1
0.9992689661343007,-0.3481069536854414,-0.7641465757097016,1
1.042997702958156,-0.3540168041147084,-0.8538843673233451,1
1.086726439782011,-0.3599266545439755,-0.9436221589369886,1
1.130455176605866,-0.3658365049732427,-1.033359950550632,1
1.174183913429721,-0.3717463554025097,-1.123097742164276,1
1.217912650253576,-0.3776562058317768,-1.212835533777919,1
1.261641387077432,-0.3835660562610438,-1.302573325391562,1
0.8586221845626666,-0.4156284002453552,-0.3824931503510423,1
0.9023509213865217,-0.4215382506746223,-0.4722309419646858,1
0.9460796582103769,-0.4274481011038894,-0.5619687335783293,1
0.9898083950342321,-0.4333579515331565,-0.6517065251919728,1
1.033537131858087,-0.4392678019624236,-0.7414443168056163,1
1.077265868681942,-0.4451776523916907,-0.8311821084192598,1
1.120994605505798,-0.4510875028209578,-0.9209199000329034,1
1.164723342329653,-0.4569973532502248,-1.010657691646547,1
1.208452079153508,-0.462907203679492,-1.10039548326019,1
1.252180815977363,-0.468817054108759,-1.190133274873834,1
1.295909552801218,-0.4747269045380261,-1.279871066487477,1
0.892890350286453,-0.5067892485223375,-0.359790891446957,1
0.9366190871103083,-0.5126990989516047,-0.4495286830606005,1
0.9803478239341634,-0.5186089493808717,-0.539266474674244,1
1.024076560758018,-0.5245187998101388,-0.6290042662878875,1
1.067805297581874,-0.5304286502394058,-0.718742057901531,1
1.111534034405729,-0.5363385006686729,-0.8084798495151745,1
1.155262771229584,-0.5422483510979401,-0.8982176411288181,1
1.198991508053439,-0.5481582015272071,-0.9879554327424616,1
1.242720244877294,-0.5540680519564742,-1.077693224356105,1
1.286448981701149,-0.5599779023857412,-1.167431015969748,1
1.330177718525005,-0.5658877528150084,-1.257168807583392,1
0.9271585160102396,-0.5979500967993199,-0.3370886325428717,1
0.9708872528340947,-0.603859947228587,-0.4268264241565152,1
1.01461598965795,-0.609769797657854,-0.5165642157701588,1
1.058344726481805,-0.6156796480871212,-0.6063020073838022,1
1.10207346330566,-0.6215894985163881,-0.6960397989974457,1
1.145802200129515,-0.6274993489456553,-0.7857775906110892,1
1.18953093695337,-0.6334091993749225,-0.8755153822247328,1
1.233259673777225,-0.6393190498041894,-0.9652531738383763,1
1.276988410601081,-0.6452289002334566,-1.05499096545202,1
1.320717147424936,-0.6511387506627235,-1.144728757065663,1
1.364445884248791,-0.6570486010919907,-1.234466548679306,1
0.961426681734026,-0.689110945076302,-0.3143863736387864,1
1.005155418557881,-0.6950207955055692,-0.4041241652524299,1
1.048884155381736,-0.7009306459348361,-0.4938619568660735,1
1.092612892205592,-0.7068404963641033,-0.583599748479717,1
1.136341629029447,-0.7127503467933705,-0.6733375400933604,1
1.180070365853302,-0.7186601972226374,-0.7630753317070039,1
1.223799102677157,-0.7245700476519046,-0.8528131233206475,1
1.267527839501012,-0.7304798980811718,-0.942550914934291,1
1.311256576324867,-0.7363897485104387,-1.032288706547934,1
1.354985313148722,-0.7422995989397057,-1.122026498161578,1
1.398714049972578,-0.748209449368973,-1.211764289775221,1
0.9956948474578126,-0.7802717933532841,-0.2916841147347011,1
1.039423584281667,-0.7861816437825515,-0.3814219063483446,1
1.083152321105523,-0.7920914942118185,-0.4711596979619882,1
1.126881057929378,-0.7980013446410854,-0.5608974895756317,1
1.170609794753233,-0.8039111950703526,-0.6506352811892752,1
1.214338531577088,-0.8098210454996198,-0.7403730728029186,1
1.258067268400943,-0.8157308959288867,-0.8301108644165622,1
1.301796005224799,-0.8216407463581539,-0.9198486560302057,1
1.345524742048654,-0.827550596787421,-1.009586447643849,1
1.389253478872509,-0.833460447216688,-1.099324239257493,1
1.432982215696364,-0.8393702976459552,-1.189062030871136,1
1.029963013181599,-0.8714326416302665,-0.2689818558306158,1
1.073691750005454,-0.8773424920595339,-0.3587196474442593,1
1.117420486829309,-0.8832523424888008,-0.4484574390579028,1
1.161149223653164,-0.8891621929180678,-0.5381952306715463,1
1.204877960477019,-0.8950720433473349,-0.6279330222851898,1
1.248606697300875,-0.9009818937766021,-0.7176708138988334,1
1.29233543412473,-0.906891744205869,-0.8074086055124768,1
1.336064170948585,-0.9128015946351362,-0.8971463971261203,1
1.37979290777244,-0.9187114450644034,-0.9868841887397639,1
1.423521644596295,-0.9246212954936703,-1.076621980353407,1
1.467250381420151,-0.9305311459229375,-1.166359771967051,1
