0.807403786564649,0.3944784486083788,-0.2741811687340959,1
0.880158806590026,0.4566412614846591,-0.3032068772769645,1
0.952913826615403,0.5188040743609393,-0.3322325858198331,1
1.02566884664078,0.5809668872372196,-0.3612582943627017,1
1.098423866666157,0.6431297001134999,-0.3902840029055703,1
1.171178886691534,0.7052925129897801,-0.4193097114484389,1
1.243933906716911,0.7674553258660605,-0.4483354199913074,1
1.316688926742288,0.8296181387423407,-0.477361128534176,1
1.389443946767665,0.891780951618621,-0.5063868370770447,1
1.462198966793042,0.9539437644949014,-0.5354125456199132,1
1.534953986818419,1.016106577371181,-0.5644382541627818,1
0.8306773670569105,0.3323156357320985,-0.348975053152401,1
0.9034323870822875,0.3944784486083788,-0.3780007616952696,1
0.9761874071076645,0.4566412614846591,-0.4070264702381382,1
1.048942427133041,0.5188040743609393,-0.4360521787810068,1
1.121697447158418,0.5809668872372196,-0.4650778873238753,1
1.194452467183795,0.6431297001134999,-0.494103595866744,1
1.267207487209173,0.7052925129897802,-0.5231293044096126,1
1.339962507234549,0.7674553258660604,-0.5521550129524812,1
1.412717527259927,0.8296181387423407,-0.5811807214953497,1
1.485472547285303,0.891780951618621,-0.6102064300382184,1
1.55822756731068,0.9539437644949011,-0.639232138581087,1
0.853950947549172,0.2701528228558182,-0.4237689375707061,1
0.926705967574549,0.3323156357320985,-0.4527946461135748,1
0.9994609875999261,0.3944784486083788,-0.4818203546564434,1
1.072216007625303,0.4566412614846591,-0.5108460631993119,1
1.14497102765068,0.5188040743609393,-0.5398717717421805,1
1.217726047676057,0.5809668872372196,-0.5688974802850491,1
1.290481067701434,0.6431297001134999,-0.5979231888279177,1
1.363236087726811,0.7052925129897801,-0.6269488973707863,1
1.435991107752188,0.7674553258660604,-0.6559746059136549,1
1.508746127777565,0.8296181387423407,-0.6850003144565234,1
1.581501147802942,0.891780951618621,-0.7140260229993921,1
0.8772245280414336,0.2079900099795379,-0.4985628219890113,1
0.9499795480668106,0.2701528228558182,-0.5275885305318798,1
1.022734568092188,0.3323156357320984,-0.5566142390747485,1
1.095489588117565,0.3944784486083788,-0.5856399476176171,1
1.168244608142941,0.456641261484659,-0.6146656561604856,1
1.240999628168318,0.5188040743609392,-0.6436913647033542,1
1.313754648193695,0.5809668872372196,-0.6727170732462229,1
1.386509668219073,0.6431297001134999,-0.7017427817890914,1
1.45926468824445,0.7052925129897801,-0.73076849033196,1
1.532019708269826,0.7674553258660604,-0.7597941988748286,1
1.604774728295204,0.8296181387423407,-0.7888199074176973,1
0.9004981085336952,0.1458271971032576,-0.5733567064073164,1
0.9732531285590721,0.2079900099795379,-0.602382414950185,1
1.046008148584449,0.2701528228558182,-0.6314081234930535,1
1.118763168609826,0.3323156357320985,-0.6604338320359222,1
1.191518188635203,0.3944784486083788,-0.6894595405787908,1
1.26427320866058,0.456641261484659,-0.7184852491216593,1
1.337028228685957,0.5188040743609393,-0.7475109576645279,1
1.409783248711334,0.5809668872372196,-0.7765366662073966,1
1.482538268736711,0.6431297001134999,-0.8055623747502652,1
1.555293288762088,0.7052925129897801,-0.8345880832931337,1
1.628048308787465,0.7674553258660604,-0.8636137918360023,1
0.9237716890259566,0.08366438422697736,-0.6481505908256214,1
0.9965267090513337,0.1458271971032576,-0.6771762993684901,1
1.069281729076711,0.2079900099795379,-0.7062020079113587,1
1.142036749102088,0.2701528228558182,-0.7352277164542272,1
1.214791769127465,0.3323156357320984,-0.7642534249970959,1
1.287546789152842,0.3944784486083787,-0.7932791335399644,1
1.360301809178219,0.4566412614846591,-0.8223048420828331,1
1.433056829203596,0.5188040743609392,-0.8513305506257016,1
1.505811849228972,0.5809668872372196,-0.8803562591685702,1
1.57856686925435,0.6431297001134999,-0.9093819677114389,1
1.651321889279727,0.70529251298978,-0.9384076762543073,1
0.9470452695182182,0.02150157135069702,-0.7229444752439267,1
1.019800289543595,0.08366438422697731,-0.7519701837867953,1
1.092555309568972,0.1458271971032576,-0.7809958923296638,1
1.165310329594349,0.2079900099795379,-0.8100216008725325,1
1.238065349619726,0.2701528228558181,-0.8390473094154011,1
1.310820369645103,0.3323156357320984,-0.8680730179582696,1
1.38357538967048,0.3944784486083787,-0.8970987265011382,1
1.456330409695857,0.4566412614846589,-0.9261244350440069,1
1.529085429721234,0.5188040743609392,-0.9551501435868754,1
1.601840449746611,0.5809668872372196,-0.984175852129744,1
1.674595469771988,0.6431297001134997,-1.013201560672613,1
0.9703188500104798,-0.04066124152558326,-0.7977383596622317,1
1.043073870035857,0.02150157135069702,-0.8267640682051003,1
1.115828890061234,0.08366438422697731,-0.8557897767479689,1
1.188583910086611,0.1458271971032576,-0.8848154852908375,1
1.261338930111988,0.2079900099795378,-0.9138411938337061,1
1.334093950137365,0.2701528228558181,-0.9428669023765747,1
1.406848970162742,0.3323156357320984,-0.9718926109194433,1
1.479603990188119,0.3944784486083787,-1.000918319462312,1
1.552359010213496,0.4566412614846589,-1.02994402800518,1
1.625114030238873,0.5188040743609392,-1.058969736548049,1
1.69786905026425,0.5809668872372195,-1.087995445090918,1
0.9935924305027413,-0.1028240544018635,-0.8725322440805369,1
1.066347450528118,-0.0406612415255832,-0.9015579526234054,1
1.139102470553495,0.02150157135069708,-0.930583661166274,1
1.211857490578872,0.08366438422697736,-0.9596093697091427,1
1.284612510604249,0.1458271971032576,-0.9886350782520112,1
1.357367530629626,0.2079900099795379,-1.01766078679488,1
1.430122550655003,0.2701528228558182,-1.046686495337748,1
1.50287757068038,0.3323156357320984,-1.075712203880617,1
1.575632590705757,0.3944784486083787,-1.104737912423486,1
1.648387610731134,0.456641261484659,-1.133763620966354,1
1.721142630756511,0.5188040743609392,-1.162789329509223,1
1.016866010995003,-0.1649868672781438,-0.9473261284988419,1
1.08962103102038,-0.1028240544018635,-0.9763518370417105,1
1.162376051045757,-0.04066124152558326,-1.005377545584579,1
1.235131071071134,0.02150157135069702,-1.034403254127448,1
1.307886091096511,0.08366438422697731,-1.063428962670316,1
1.380641111121888,0.1458271971032575,-1.092454671213185,1
1.453396131147265,0.2079900099795379,-1.121480379756053,1
1.526151151172642,0.2701528228558181,-1.150506088298922,1
1.598906171198019,0.3323156357320984,-1.179531796841791,1
1.671661191223396,0.3944784486083787,-1.208557505384659,1
1.744416211248773,0.4566412614846589,-1.237583213927528,1
1.040139591487264,-0.227149680154424,-1.022120012917147,1
1.112894611512641,-0.1649868672781438,-1.051145721460016,1
1.185649631538018,-0.1028240544018635,-1.080171430002884,1
1.258404651563395,-0.0406612415255832,-1.109197138545753,1
1.331159671588772,0.02150157135069708,-1.138222847088621,1
1.403914691614149,0.08366438422697731,-1.16724855563149,1
1.476669711639526,0.1458271971032576,-1.196274264174358,1
1.549424731664903,0.2079900099795379,-1.225299972717227,1
1.62217975169028,0.2701528228558182,-1.254325681260096,1
1.694934771715657,0.3323156357320984,-1.283351389802964,1
1.767689791741034,0.3944784486083787,-1.312377098345833,1
