2.101062961080304,0.7112073974165725,-0.2056575824221913,1
2.067242768113846,0.6311507769345446,-0.1561890867435465,1
2.033422575147388,0.5510941564525167,-0.1067205910649017,1
1.999602382180929,0.4710375359704889,-0.05725209538625692,1
1.965782189214472,0.390980915488461,-0.00778359970761211,1
1.931961996248014,0.3109242950064331,0.04168489597103267,1
1.898141803281556,0.2308676745244052,0.09115339164967748,1
1.864321610315098,0.1508110540423773,0.1406218873283223,1
1.83050141734864,0.07075443356034938,0.190090383006967,1
1.796681224382182,-0.009302186921678501,0.2395588786856118,1
1.762861031415724,-0.08935880740370639,0.2890273743642566,1
2.012816852533454,0.7199247619664899,-0.2518812979980893,1
1.978996659566996,0.639868141484462,-0.2024128023194446,1
1.945176466600538,0.5598115210024341,-0.1529443066407998,1
1.91135627363408,0.4797549005204063,-0.103475810962155,1
1.877536080667622,0.3996982800383784,-0.05400731528351016,1
1.843715887701164,0.3196416595563505,-0.004538819604865379,1
1.809895694734706,0.2395850390743226,0.04492967607377943,1
1.776075501768248,0.1595284185922947,0.09439817175242424,1
1.74225530880179,0.07947179811026683,0.143866667431069,1
1.708435115835332,-0.0005848223717610512,0.1933351631097138,1
1.674614922868874,-0.08064144285378894,0.2428036587883586,1
1.924570743986605,0.7286421265164074,-0.2981050135739874,1
1.890750551020147,0.6485855060343795,-0.2486365178953426,1
1.856930358053689,0.5685288855523516,-0.1991680222166978,1
1.823110165087231,0.4884722650703237,-0.149699526538053,1
1.789289972120773,0.4084156445882958,-0.1002310308594082,1
1.755469779154315,0.3283590241062679,-0.05076253518076343,1
1.721649586187857,0.24830240362424,-0.001294039502118621,1
1.687829393221399,0.1682457831422122,0.04817445617652619,1
1.654009200254941,0.08818916266018428,0.09764295185517094,1
1.620189007288483,0.008132542178156399,0.1471114475338157,1
1.586368814322025,-0.07192407830387149,0.1965799432124606,1
1.836324635439755,0.7373594910663248,-0.3443287291498854,1
1.802504442473297,0.6573028705842969,-0.2948602334712407,1
1.768684249506839,0.577246250102269,-0.2453917377925959,1
1.734864056540381,0.4971896296202412,-0.1959232421139511,1
1.701043863573923,0.4171330091382133,-0.1464547464353063,1
1.667223670607465,0.3370763886561854,-0.09698625075666151,1
1.633403477641007,0.2570197681741574,-0.0475177550780167,1
1.599583284674549,0.1769631476921295,0.001950740600628109,1
1.565763091708091,0.09690652721010162,0.05141923627927283,1
1.531942898741633,0.01684990672807374,0.1008877319579177,1
1.498122705775176,-0.06320671375395415,0.1503562276365625,1
1.748078526892906,0.7460768556162423,-0.3905524447257835,1
1.714258333926448,0.6660202351342144,-0.3410839490471387,1
1.68043814095999,0.5859636146521865,-0.2916154533684939,1
1.646617947993532,0.5059069941701586,-0.2421469576898491,1
1.612797755027074,0.4258503736881307,-0.1926784620112043,1
1.578977562060616,0.3457937532061028,-0.1432099663325596,1
1.545157369094158,0.2657371327240748,-0.09374147065391475,1
1.5113371761277,0.185680512242047,-0.04427297497526994,1
1.477516983161242,0.1056238917600191,0.005195520703374812,1
1.443696790194784,0.02556727127799119,0.05466401638201959,1
1.409876597228326,-0.0544893492040367,0.1041325120606645,1
1.659832418346056,0.7547942201661597,-0.4367761603016815,1
1.626012225379599,0.6747375996841318,-0.3873076646230368,1
1.59219203241314,0.5946809792021039,-0.3378391689443919,1
1.558371839446683,0.5146243587200761,-0.2883706732657472,1
1.524551646480225,0.4345677382380481,-0.2389021775871024,1
1.490731453513767,0.3545111177560202,-0.1894336819084576,1
1.456911260547309,0.2744544972739923,-0.1399651862298128,1
1.423091067580851,0.1943978767919644,-0.09049669055116796,1
1.389270874614393,0.1143412563099365,-0.04102819487252321,1
1.355450681647935,0.03428463582790864,0.008440300806121598,1
1.321630488681477,-0.04577198465411925,0.05790879648476641,1
1.571586309799207,0.7635115847160772,-0.4829998758775796,1
1.537766116832749,0.6834549642340493,-0.4335313801989349,1
1.503945923866291,0.6033983437520214,-0.38406288452029,1
1.470125730899833,0.5233417232699935,-0.3345943888416453,1
1.436305537933375,0.4432851027879656,-0.2851258931630005,1
1.402485344966917,0.3632284823059377,-0.2356573974843557,1
1.368665152000459,0.2831718618239097,-0.1861889018057109,1
1.334844959034001,0.2031152413418819,-0.1367204061270661,1
1.301024766067543,0.123058620859854,-0.08725191044842132,1
1.267204573101085,0.04300200037782609,-0.03778341476977651,1
1.233384380134627,-0.0370546201042018,0.0116850809088683,1
1.483340201252358,0.7722289492659946,-0.5292235914534777,1
1.4495200082859,0.6921723287839667,-0.4797550957748329,1
1.415699815319442,0.6121157083019388,-0.4302866000961881,1
1.381879622352984,0.5320590878199108,-0.3808181044175433,1
1.348059429386526,0.452002467337883,-0.3313496087388985,1
1.314239236420068,0.3719458468558551,-0.2818811130602538,1
1.28041904345361,0.2918892263738271,-0.2324126173816089,1
1.246598850487152,0.2118326058917993,-0.1829441217029641,1
1.212778657520694,0.1317759854097714,-0.1334756260243194,1
1.178958464554236,0.05171936492774354,-0.08400713034567456,1
1.145138271587778,-0.02833725555428435,-0.03453863466702975,1
1.395094092705508,0.780946313815912,-0.5754473070293757,1
1.36127389973905,0.7008896933338841,-0.5259788113507309,1
1.327453706772592,0.6208330728518562,-0.4765103156720861,1
1.293633513806134,0.5407764523698283,-0.4270418199934414,1
1.259813320839676,0.4607198318878004,-0.3775733243147965,1
1.225993127873219,0.3806632114057725,-0.3281048286361518,1
1.19217293490676,0.3006065909237446,-0.2786363329575069,1
1.158352741940302,0.2205499704417168,-0.2291678372788621,1
1.124532548973844,0.1404933499596889,-0.1796993416002174,1
1.090712356007387,0.06043672947766099,-0.1302308459215726,1
1.056892163040928,-0.0196198910043669,-0.08076235024292774,1
1.306847984158659,0.7896636783658294,-0.6216710226052737,1
1.273027791192201,0.7096070578838015,-0.572202526926629,1
1.239207598225743,0.6295504374017735,-0.5227340312479841,1
1.205387405259285,0.5494938169197457,-0.4732655355693394,1
1.171567212292827,0.4694371964377179,-0.4237970398906946,1
1.137747019326369,0.38938057595569,-0.3743285442120498,1
1.103926826359911,0.309323955473662,-0.324860048533405,1
1.070106633393453,0.2292673349916341,-0.2753915528547601,1
1.036286440426995,0.1492107145096062,-0.2259230571761154,1
1.002466247460537,0.06915409402757833,-0.1764545614974706,1
0.9686460544940793,-0.01090252645444956,-0.1269860658188258,1
1.21860187561181,0.7983810429157467,-0.6678947381811718,1
1.184781682645352,0.7183244224337189,-0.618426242502527,1
1.150961489678894,0.638267801951691,-0.5689577468238822,1
1.117141296712436,0.5582111814696631,-0.5194892511452375,1
1.083321103745978,0.4781545609876353,-0.4700207554665926,1
1.04950091077952,0.3980979405056074,-0.4205522597879479,1
1.015680717813062,0.3180413200235794,-0.371083764109303,1
0.9818605248466038,0.2379846995415515,-0.3216152684306582,1
0.9480403318801459,0.1579280790595237,-0.2721467727520135,1
0.914220138913688,0.07787145857749578,-0.2226782770733687,1
0.8803999459472299,-0.002185161904532107,-0.1732097813947238,1
