2.009450275472064,0.7472148852894628,0.061696875408459,1
1.938677386251993,0.8174902992175557,0.0689470029024343,1
1.867904497031924,0.8877657131456487,0.07619713039640963,1
1.797131607811854,0.9580411270737417,0.08344725789038493,1
1.726358718591784,1.028316541001835,0.09069738538436026,1
1.655585829371714,1.098591954929928,0.09794751287833556,1
1.584812940151644,1.168867368858021,0.1051976403723109,1
1.514040050931574,1.239142782786114,0.1124477678662862,1
1.443267161711504,1.309418196714207,0.1196978953602615,1
1.372494272491434,1.379693610642299,0.1269480228542368,1
1.301721383271364,1.449969024570392,0.1341981503482121,1
1.941980477576995,0.6769394713613698,0.08426217109085074,1
1.871207588356925,0.7472148852894628,0.09151229858482604,1
1.800434699136855,0.8174902992175557,0.09876242607880134,1
1.729661809916785,0.8877657131456487,0.1060125535727766,1
1.658888920696715,0.9580411270737417,0.113262681066752,1
1.588116031476645,1.028316541001835,0.1205128085607273,1
1.517343142256575,1.098591954929928,0.1277629360547026,1
1.446570253036505,1.168867368858021,0.1350130635486779,1
1.375797363816435,1.239142782786114,0.1422631910426532,1
1.305024474596365,1.309418196714206,0.1495133185366285,1
1.234251585376295,1.379693610642299,0.1567634460306038,1
1.874510679681926,0.6066640574332769,0.1068274667732425,1
1.803737790461856,0.6769394713613698,0.1140775942672178,1
1.732964901241786,0.7472148852894627,0.1213277217611931,1
1.662192012021716,0.8174902992175557,0.1285778492551684,1
1.591419122801646,0.8877657131456487,0.1358279767491437,1
1.520646233581576,0.9580411270737417,0.143078104243119,1
1.449873344361506,1.028316541001835,0.1503282317370943,1
1.379100455141436,1.098591954929928,0.1575783592310696,1
1.308327565921366,1.168867368858021,0.1648284867250449,1
1.237554676701296,1.239142782786113,0.1720786142190202,1
1.166781787481226,1.309418196714206,0.1793287417129955,1
1.807040881786857,0.5363886435051838,0.1293927624556342,1
1.736267992566787,0.6066640574332768,0.1366428899496095,1
1.665495103346717,0.6769394713613697,0.1438930174435848,1
1.594722214126647,0.7472148852894627,0.1511431449375601,1
1.523949324906577,0.8174902992175557,0.1583932724315354,1
1.453176435686507,0.8877657131456487,0.1656433999255107,1
1.382403546466437,0.9580411270737417,0.1728935274194861,1
1.311630657246367,1.028316541001835,0.1801436549134614,1
1.240857768026297,1.098591954929928,0.1873937824074367,1
1.170084878806227,1.16886736885802,0.194643909901412,1
1.099311989586157,1.239142782786113,0.2018940373953873,1
1.739571083891788,0.4661132295770908,0.1519580581380259,1
1.668798194671719,0.5363886435051838,0.1592081856320013,1
1.598025305451648,0.6066640574332768,0.1664583131259765,1
1.527252416231578,0.6769394713613698,0.1737084406199519,1
1.456479527011509,0.7472148852894627,0.1809585681139272,1
1.385706637791438,0.8174902992175557,0.1882086956079025,1
1.314933748571368,0.8877657131456487,0.1954588231018778,1
1.244160859351298,0.9580411270737417,0.2027089505958531,1
1.173387970131228,1.028316541001835,0.2099590780898284,1
1.102615080911159,1.098591954929927,0.2172092055838037,1
1.031842191691088,1.16886736885802,0.224459333077779,1
1.67210128599672,0.3958378156489979,0.1745233538204176,1
1.60132839677665,0.4661132295770909,0.1817734813143929,1
1.53055550755658,0.5363886435051839,0.1890236088083682,1
1.45978261833651,0.6066640574332769,0.1962737363023436,1
1.38900972911644,0.6769394713613698,0.2035238637963189,1
1.31823683989637,0.7472148852894627,0.2107739912902942,1
1.2474639506763,0.8174902992175559,0.2180241187842695,1
1.17669106145623,0.8877657131456487,0.2252742462782448,1
1.10591817223616,0.9580411270737417,0.2325243737722202,1
1.03514528301609,1.028316541001835,0.2397745012661954,1
0.9643723937960199,1.098591954929928,0.2470246287601708,1
1.604631488101651,0.3255624017209048,0.1970886495028094,1
1.533858598881581,0.3958378156489978,0.2043387769967847,1
1.463085709661511,0.4661132295770908,0.21158890449076,1
1.392312820441441,0.5363886435051838,0.2188390319847353,1
1.321539931221371,0.6066640574332767,0.2260891594787106,1
1.250767042001301,0.6769394713613697,0.2333392869726859,1
1.179994152781231,0.7472148852894627,0.2405894144666612,1
1.109221263561161,0.8174902992175557,0.2478395419606365,1
1.038448374341091,0.8877657131456487,0.2550896694546119,1
0.9676754851210211,0.9580411270737414,0.2623397969485871,1
0.896902595900951,1.028316541001834,0.2695899244425625,1
1.537161690206582,0.2552869877928119,0.2196539451852011,1
1.466388800986512,0.3255624017209049,0.2269040726791764,1
1.395615911766442,0.3958378156489978,0.2341542001731517,1
1.324843022546372,0.4661132295770908,0.2414043276671271,1
1.254070133326302,0.5363886435051838,0.2486544551611024,1
1.183297244106232,0.6066640574332767,0.2559045826550777,1
1.112524354886162,0.6769394713613698,0.263154710149053,1
1.041751465666092,0.7472148852894627,0.2704048376430283,1
0.9709785764460223,0.8174902992175557,0.2776549651370036,1
0.9002056872259522,0.8877657131456487,0.2849050926309789,1
0.8294327980058823,0.9580411270737417,0.2921552201249542,1
1.469691892311513,0.1850115738647189,0.2422192408675929,1
1.398919003091443,0.2552869877928119,0.2494693683615681,1
1.328146113871373,0.3255624017209048,0.2567194958555434,1
1.257373224651303,0.3958378156489978,0.2639696233495188,1
1.186600335431233,0.4661132295770908,0.271219750843494,1
1.115827446211163,0.5363886435051837,0.2784698783374694,1
1.045054556991093,0.6066640574332768,0.2857200058314446,1
0.9742816677710234,0.6769394713613697,0.29297013332542,1
0.9035087785509536,0.7472148852894627,0.3002202608193953,1
0.8327358893308835,0.8174902992175557,0.3074703883133706,1
0.7619630001108134,0.8877657131456487,0.3147205158073459,1
1.402222094416445,0.114736159936626,0.2647845365499846,1
1.331449205196375,0.185011573864719,0.2720346640439598,1
1.260676315976305,0.2552869877928119,0.2792847915379352,1
1.189903426756235,0.3255624017209049,0.2865349190319105,1
1.119130537536165,0.3958378156489979,0.2937850465258858,1
1.048357648316095,0.4661132295770908,0.3010351740198611,1
0.9775847590960246,0.5363886435051839,0.3082853015138364,1
0.9068118698759547,0.6066640574332769,0.3155354290078117,1
0.8360389806558847,0.6769394713613698,0.3227855565017871,1
0.7652660914358146,0.7472148852894627,0.3300356839957623,1
0.6944932022157447,0.8174902992175557,0.3372858114897377,1
1.334752296521376,0.044460746008533,0.2873498322323763,1
1.263979407301306,0.114736159936626,0.2945999597263516,1
1.193206518081236,0.185011573864719,0.3018500872203269,1
1.122433628861166,0.2552869877928119,0.3091002147143022,1
1.051660739641096,0.3255624017209049,0.3163503422082775,1
0.9808878504210258,0.3958378156489978,0.3236004697022529,1
0.9101149612009559,0.4661132295770909,0.3308505971962281,1
0.8393420719808858,0.5363886435051839,0.3381007246902035,1
0.7685691827608158,0.6066640574332768,0.3453508521841788,1
0.6977962935407459,0.6769394713613697,0.3526009796781541,1
0.627023404320676,0.7472148852894627,0.3598511071721294,1
