3.1566,0.645753,-0.350701
3.12691,0.74021,-0.262151
3.17088,0.588085,-0.351025
3.18421,0.57037,-0.352107
3.15491,0.667595,-0.144293
3.19647,0.552345,-0.353081
3.19686,0.532232,-0.352757
3.16425,0.625086,-0.382493
3.20609,0.493415,-0.353081
3.16705,0.605472,-0.382376
3.1722,0.588251,-0.263208
3.21103,0.474024,-0.353298
3.17559,0.58693,-0.382964
3.17477,0.5686,-0.263127
3.21585,0.454591,-0.353514
3.17717,0.567085,-0.382729
3.18217,0.553171,-0.0266083
3.18016,0.549449,-0.263289
3.22055,0.435116,-0.353731
3.19438,0.535122,-0.0266824
3.18741,0.53058,-0.263614
3.23104,0.416364,-0.354596
3.18781,0.528704,-0.3832
3.24242,0.39762,-0.35557
3.20276,0.511011,-0.384613
3.1986,0.492183,-0.264021
3.20682,0.4915,-0.384731
3.21753,0.478291,-0.0267978
3.20452,0.472985,-0.264265
3.25693,0.358889,-0.356652
3.20978,0.471814,-0.384731
3.21404,0.459407,0.0917095
3.21843,0.458258,-0.0267813
3.22243,0.457508,-0.145634
3.21328,0.45415,-0.264753
3.25314,0.338281,-0.356003
3.21753,0.452802,-0.38532
3.24769,0.325426,0.243184
3.22076,0.440219,0.0918224
3.22613,0.439176,-0.0268225
3.21798,0.434692,-0.264915
3.26406,0.319185,-0.356977
3.21729,0.432655,-0.384966
3.26685,0.31117,-0.730706
3.23232,0.421612,0.0920765
3.23373,0.420016,-0.0268637
3.2196,0.414811,-0.264834
3.26992,0.299514,-0.35741
3.22383,0.413411,-0.385437
3.24179,0.402633,0.0922742
3.2422,0.400903,-0.0269131
3.23099,0.39614,-0.265566
3.27566,0.279783,-0.357842
3.23025,0.394103,-0.385908
3.26655,0.27665,-0.478653
3.24916,0.38332,0.0924154
3.24658,0.381235,-0.0269296
3.23633,0.376653,-0.26581
3.28623,0.260385,-0.358816
3.23754,0.374846,-0.386497
3.27016,0.256757,-0.478942
3.25245,0.363488,0.0924436
3.25284,0.361749,-0.0269625
3.23759,0.356679,-0.265729
3.25557,0.356704,-0.388381
3.28055,0.237329,-0.480242
3.24597,0.343929,0.211769
3.2576,0.343839,0.0925283
3.21305,0.4573,0.0606722
3.25062,0.337941,-0.266623
3.29612,0.220503,-0.359574
3.26165,0.33713,-0.388852
3.29478,0.218045,-0.48212
3.29398,0.20878,0.367654
3.25199,0.324402,0.212028
3.25965,0.323844,0.0925283
3.22571,0.438924,0.0608592
3.2566,0.318377,-0.266948
3.26069,0.316823,-0.388499
3.301,0.198121,-0.482842
3.26286,0.305278,0.21261
3.30534,0.187003,0.125445
3.26356,0.304023,0.0925848
3.23429,0.419896,0.0609713
3.26147,0.298661,-0.267192
3.26554,0.29708,-0.388852
3.30314,0.177916,-0.482987
3.26964,0.285687,0.212934
3.31441,0.167121,0.125748
3.26537,0.283992,0.0925848
3.22986,0.399184,0.0608405
3.27959,0.282115,-0.147288
3.27218,0.279407,-0.267924
3.27621,0.277792,-0.389912
3.3012,0.157503,-0.482554
3.30198,0.153498,-0.607994
3.27493,0.272043,-0.764664
3.2783,0.266184,0.213387
3.32036,0.147002,0.125938
3.27203,0.264353,0.092726
3.27085,0.259088,-0.26768
3.31842,0.140301,-0.361521
3.30903,0.137532,-0.483565
3.31073,0.133551,-0.609441
3.23778,0.371016,-0.664406
3.27459,0.251794,-0.764211
3.28783,0.246661,0.213905
3.23793,0.361444,0.179757
3.3252,0.126779,0.126089
3.27658,0.244495,0.0928107
3.24246,0.360402,0.06099
3.20602,0.473964,0.029414
3.29277,0.242583,-0.147735
3.27735,0.239376,-0.268087
3.32069,0.117611,-0.485154
3.31738,0.113436,-0.610527
3.32466,0.108482,0.370532
3.29619,0.227999,0.334974
3.29326,0.226757,0.214164
3.24903,0.342511,0.180253
3.32791,0.106437,0.126165
3.28201,0.224658,0.0929236
3.25257,0.341335,0.0611395
3.2943,0.223709,-0.0272014
3.28572,0.219728,-0.268656
3.32728,0.0974073,-0.486021
3.32883,0.0933824,-0.612517
3.33716,0.0897946,0.495885
3.3005,0.207957,0.335276
3.29459,0.206546,0.214164
3.25902,0.323358,0.180694
3.34049,0.0863251,0.126619
3.2953,0.205262,0.0932624
3.25759,0.321666,0.0611956
3.289,0.199684,-0.268818
3.32584,0.0769439,-0.485732
3.32934,0.0729553,-0.612517
3.34457,0.0694603,0.496914
3.30172,0.187702,0.335276
3.29281,0.186158,0.21397
3.2669,0.30391,0.181024
3.30248,0.185375,0.0934319
3.2585,0.301579,0.0611769
3.30366,0.182318,-0.148048
3.30509,0.180313,-0.270038
3.34307,0.0568213,-0.488188
3.29253,0.176343,-0.513506
3.34546,0.0527737,-0.615411
3.29995,0.17495,-0.640072
3.339,0.0488502,0.496032
3.29784,0.167188,0.334772
3.27468,0.284377,0.181355
3.24001,0.399901,0.149044
3.35029,0.0454477,0.12696
3.30755,0.165307,0.0935448
3.31384,0.163824,-0.0273332
3.30971,0.162288,-0.148271
3.30912,0.160175,-0.270282
3.34929,0.0363721,-0.489055
3.30684,0.154974,-0.641213
3.26326,0.27283,-0.667602
3.34023,0.0283699,0.496179
3.30382,0.146133,0.214553
3.23844,0.379548,0.148862
3.3535,0.0249121,0.127074
3.3095,0.145053,0.093573
3.35892,0.0227246,0.00445555
3.31678,0.143574,-0.0273497
3.32162,0.142448,-0.148763
3.31402,0.140036,-0.270607
3.30595,0.137729,-0.392385
3.3544,0.0158439,-0.489777
3.31656,0.13504,-0.642924
3.3443,0.00788348,0.496767
3.30859,0.127049,0.33568
3.31961,0.126428,0.215524
3.2819,0.244467,0.181575
3.24964,0.360662,0.149272
3.35659,0.00433884,0.127187
3.31133,0.124781,0.0936013
3.27347,0.242288,0.0613638
3.23819,0.357503,0.0295683
3.32759,0.123591,-0.0274321
3.35337,-0.00093278,-0.240726
3.31781,0.119807,-0.270851
3.36828,-0.00475813,-0.4918
3.31201,0.116298,-0.516122
3.35963,-0.00885049,-0.617943
3.32027,0.11479,-0.643494
3.27809,0.2336,-0.669999
3.3284,0.109048,0.461391
3.33229,0.106439,0.216301
3.29231,0.224938,0.182071
3.25974,0.341549,0.149637
3.36954,-0.0163198,0.127679
3.31903,0.104681,0.0937989
3.27889,0.222469,0.0614386
3.25723,0.339389,0.0297226
3.32829,0.103171,-0.0274321
3.36627,-0.0215918,-0.241656
3.31948,0.0994766,-0.270933
3.3176,0.096117,-0.516892
3.36738,-0.0295336,-0.619391
3.3268,0.0945821,-0.644635
3.28532,0.213863,-0.671198
3.30186,0.213262,-0.803893
3.37738,-0.0352807,-0.886653
3.3259,0.0858102,0.215848
3.29063,0.204546,0.181906
3.3236,0.0844159,0.0939119
3.28518,0.202653,0.0615321
3.25627,0.319104,0.0296953
3.33186,0.0828217,-0.0274568
3.35909,-0.0421588,-0.241155
3.32603,0.0759392,-0.518123
3.33419,0.0743206,-0.645966
3.2944,0.194162,-0.672796
3.34237,0.0684587,0.463175
3.33734,0.065617,0.21656
3.29382,0.184463,0.182016
3.37408,-0.0577535,0.127869
3.33305,0.0641943,0.094166
3.3443,0.0626008,-0.0275556
3.34709,0.061309,-0.149791
3.33241,0.0589455,-0.271908
3.34125,0.055777,-0.520431
3.38643,-0.0712682,-0.623009
3.34832,0.054083,-0.648629
3.30042,0.174202,-0.673795
3.33975,0.0479065,0.462763
3.34865,0.0452867,0.217272
3.29689,0.164349,0.182126
3.38665,-0.0787575,0.128361
3.34338,0.043873,0.0944483
3.2984,0.162866,0.0617377
3.26791,0.279803,0.0297679
3.34462,0.0420794,-0.0275556
3.26192,0.278315,-0.0898435
3.3454,0.0407461,-0.149702
3.34068,0.0385892,-0.272559
3.30023,0.156778,-0.423656
3.35339,0.0353996,-0.522278
3.30034,0.155456,-0.547152
3.38495,-0.0920189,-0.622828
3.35547,0.0336058,-0.64996
3.3073,0.154222,-0.674993
3.31327,0.148441,0.427277
3.34078,0.0257287,0.338706
3.34288,0.0246947,0.216883
3.28009,0.262484,0.15023
3.34658,0.0233785,0.094533
3.27255,0.259984,0.0297952
3.34882,0.0215822,-0.0275886
3.26854,0.258689,-0.0899807
3.35558,0.0202787,-0.150149
3.34085,0.0180905,-0.272559
3.35651,0.014836,-0.522739
3.38825,-0.112918,-0.623551
3.36052,0.0130355,-0.650911
3.32091,0.134441,-0.67759
3.34999,0.00693948,0.464136
3.32105,0.128377,0.428172
3.28978,0.244686,0.271274
3.35594,0.0041989,0.217725
3.35566,0.0028515,0.0947872
3.35289,0.00103505,-0.0276215
3.36663,-0.000312156,-0.15064
3.35386,-0.00241826,-0.273616
3.35851,-0.0057628,-0.523047
3.3983,-0.134132,-0.625541
3.35759,-0.00757785,-0.65034
3.32657,0.11423,-0.678589
3.36483,-0.0136762,0.466194
3.28525,0.224088,0.270782
3.36688,-0.0164465,0.218437
3.29801,0.223224,0.150914
3.35861,-0.0177544,0.0948719
3.36183,-0.0195903,-0.0276957
3.37072,-0.0231133,-0.274998
3.32437,0.0966396,-0.426454
3.37126,-0.026471,-0.525048
3.3204,0.0951902,-0.550092
3.40921,-0.155519,-0.627712
3.37024,-0.0282866,-0.652812
3.33309,0.0939821,-0.679788
3.35859,-0.0359601,0.340521
3.29452,0.20442,0.271438
3.37171,-0.0371599,0.218761
3.29832,0.202922,0.150868
3.36944,-0.0384877,0.0951825
3.36964,-0.0403135,-0.0277616
3.38048,-0.0439247,-0.275811
3.32886,0.0763308,-0.426963
3.32782,0.0749704,-0.551236
3.28863,0.195241,-0.579473
3.41113,-0.176587,-0.628255
3.29648,0.195418,-0.838241
3.34268,0.0676263,0.430727
3.2987,0.184368,0.271684
3.37541,-0.0579161,0.21902
3.2995,0.18268,0.150868
3.37613,-0.0592843,0.0953801
3.33584,0.0622458,0.0623732
3.40991,-0.186345,0.00452983
3.38033,-0.0611875,-0.0278522
3.38414,-0.0647424,-0.276137
3.33919,0.0560704,-0.428235
3.33611,0.0546792,-0.552543
3.29666,0.175424,-0.580686
3.41784,-0.197969,-0.629702
3.30924,0.175804,-0.841193
3.34105,0.0470867,0.430472
3.31271,0.164768,0.272749
3.38397,-0.0788353,0.219603
3.33664,0.0433551,0.184109
3.30356,0.162579,0.151005
3.3887,-0.0803066,0.0957472
3.34015,0.0418264,0.0624479
3.39264,-0.0857324,-0.276868
3.34244,0.0356122,-0.428616
3.34526,0.0342992,-0.554014
3.30062,0.155332,-0.581206
3.42736,-0.219629,-0.631692
3.38878,-0.0908431,-0.656615
3.3512,0.0266644,0.43175
3.30239,0.146199,0.393821
3.31366,0.144438,0.272749
3.3914,-0.0998324,0.22012
3.35083,0.0229768,0.184881
3.31048,0.142563,0.151279
3.39613,-0.101336,0.0959731
3.34035,0.0213308,0.0624479
3.30888,0.140585,0.0300583
3.35351,0.015152,-0.430015
3.39922,-0.110158,-0.529664
3.35527,0.0138131,-0.555647
3.31037,0.135439,-0.582765
3.423,-0.240448,-0.631149
3.39012,-0.111699,-0.656996
3.31414,0.12635,0.395122
3.39471,-0.120782,0.220379
3.3549,0.00241901,0.185101
3.31529,0.122395,0.151461
3.35241,0.000837434,0.0626722
3.36048,-0.00543626,-0.430905
3.31351,0.115439,-0.457944
3.40144,-0.131127,-0.530126
3.35924,-0.00678275,-0.556301
3.31311,0.115193,-0.583111
3.39526,-0.132729,-0.658137
3.31476,0.114903,-0.710505
3.36813,-0.0145347,0.433922
3.32775,0.106425,0.39666
3.33411,0.104356,0.274306
3.39889,-0.141817,0.220703
3.35385,-0.0181609,0.185046
3.31997,0.102174,0.151644
3.44787,-0.271127,0.131049
3.35436,-0.0197444,0.0627096
3.3713,-0.0261403,-0.432305
3.32307,0.0953612,-0.459175
3.41044,-0.152437,-0.531665
3.37196,-0.0274991,-0.558425
3.32064,0.0950595,-0.584324
3.41007,-0.154269,-0.661179
3.3242,0.094813,-0.71239
3.3214,0.0858245,0.395832
3.32771,0.0837211,0.273733
3.40294,-0.162908,0.221027
3.32153,0.0818254,0.151689
3.41466,-0.164843,0.096566
3.3681,-0.0467843,-0.431923
3.32954,0.0751035,-0.459996
3.41339,-0.173561,-0.53228
3.33002,0.0748819,-0.585883
3.41298,-0.175391,-0.66194
3.32668,0.0744581,-0.712809
3.34012,0.0635285,0.274716
3.41284,-0.184377,0.221739
3.32896,0.0615727,0.152008
3.41658,-0.185955,0.0966507
3.3744,-0.0648138,-0.183434
3.37667,-0.0676285,-0.433068
3.33291,0.0547212,-0.460407
3.46492,-0.324747,-0.508126
3.42509,-0.195233,-0.534281
3.38617,-0.0691785,-0.560875
3.33731,0.0545606,-0.587096
3.41968,-0.196781,-0.663461
3.34369,0.0543146,-0.71637
3.33746,0.0429942,0.27447
3.3779,-0.0804858,0.186423
3.33627,0.0412318,0.152328
3.42735,-0.20764,0.0969895
3.37741,-0.0820667,0.0631582
3.34606,0.0344023,-0.462185
3.43171,-0.216743,-0.535512
3.38568,-0.0899543,-0.560875
3.35137,0.034223,-0.589521
3.34201,0.0337773,-0.715951
3.34264,0.0225488,0.27488
3.38633,-0.10148,0.186919
3.43099,-0.228999,0.0971307
3.39783,-0.103427,0.0635507
3.37934,-0.106407,-0.18376
3.39541,-0.109701,-0.435611
3.46362,-0.367556,-0.508559
3.4313,-0.237864,-0.535666
3.39098,-0.11092,-0.561856
3.35743,0.0136828,-0.59056
3.40113,-0.112857,-0.693771
3.35584,0.0133248,-0.718884
3.35268,0.00204438,0.2757
3.39362,-0.122544,0.18736
3.35251,0.000288904,0.153057
3.43451,-0.25041,0.0972719
3.39558,-0.127778,-0.184683
3.39567,-0.130571,-0.435739
3.35118,-0.00667142,-0.462869
3.43963,-0.259657,-0.537204
3.40601,-0.132338,-0.56447
3.36434,-0.00693251,-0.591773
3.40429,-0.133878,-0.69457
3.3539,-0.00726221,-0.718465
3.35662,-0.0185494,0.276028
3.39879,-0.143618,0.18769
3.36543,-0.0203603,0.15365
3.43191,-0.271401,0.0972437
3.40829,-0.145628,0.063775
3.39528,-0.146913,-0.0606256
3.40172,-0.148916,-0.185062
3.40075,-0.151669,-0.436502
3.35999,-0.0273062,-0.464101
3.45078,-0.281803,-0.539205
3.40612,-0.153278,-0.564633
3.37015,-0.027624,-0.592812
3.40634,-0.154897,-0.695169
3.36242,-0.0392146,0.276519
3.40782,-0.164953,0.188241
3.36924,-0.0410585,0.153833
3.41632,-0.166978,0.0639432
3.41071,-0.170284,-0.185605
3.39865,-0.170871,-0.309632
3.41461,-0.173287,-0.438409
3.36669,-0.0480211,-0.465059
3.44997,-0.303058,-0.539359
3.4061,-0.174225,-0.564796
3.37976,-0.0484435,-0.594545
3.41902,-0.176502,-0.697966
3.36236,-0.0485462,-0.72035
3.36511,-0.0598985,0.276765
3.40874,-0.185968,0.188351
3.36793,-0.0617127,0.153787
3.40421,-0.189177,-0.0608218
3.41758,-0.191656,-0.186039
3.37921,-0.0689405,-0.466837
3.45099,-0.324498,-0.53982
3.42072,-0.196025,-0.56741
3.38334,-0.0692611,-0.595238
3.42081,-0.197647,-0.698565
3.37666,-0.0694781,-0.723492
3.3866,-0.08107,0.278568
3.41052,-0.207062,0.188517
3.37647,-0.0825966,0.154198
3.423,-0.209438,0.0641115
3.3818,-0.0846759,0.0307027
3.41733,-0.212684,-0.186094
3.37374,-0.0877736,-0.340368
3.42807,-0.216175,-0.440444
3.38565,-0.0898576,-0.467795
3.42733,-0.21751,-0.568718
3.3799,-0.089941,-0.594718
3.38986,-0.0905612,-0.726425
3.38902,-0.101938,0.278814
3.38988,-0.10374,0.154836
3.42564,-0.230706,0.0641862
3.42792,-0.234466,-0.186745
3.39004,-0.109016,-0.342074
3.43657,-0.23789,-0.441716
3.39395,-0.110921,-0.469026
3.43184,-0.238947,-0.569698
3.38519,-0.110871,-0.595757
3.38728,-0.111295,-0.726006
3.39232,-0.122875,0.279142
3.43214,-0.252308,0.0643358
3.42507,-0.253652,-0.0612678
3.39132,-0.127581,-0.0931355
3.43339,-0.256015,-0.187125
3.38732,-0.129739,-0.341873
3.39914,-0.131975,-0.469847
3.43621,-0.260447,-0.570678
3.40216,-0.132329,-0.598876
3.40332,-0.145974,0.15552
3.43351,-0.2736,0.0643918
3.39166,-0.147431,0.0308116
3.43541,-0.275622,-0.0614818
3.39946,-0.148781,-0.0933824
3.44668,-0.278282,-0.187939
3.44526,-0.281012,-0.443242
3.40916,-0.153318,-0.471352
3.44733,-0.282574,-0.572802
3.40719,-0.153468,-0.599915
3.40935,-0.167196,0.155839
3.44074,-0.295433,0.0645601
3.40467,-0.168932,0.0309387
3.48858,-0.429182,-0.0289561
3.43764,-0.297041,-0.0615531
3.40048,-0.169736,-0.0934373
3.44988,-0.299858,-0.18821
3.44248,-0.30206,-0.443115
3.41706,-0.174689,-0.472584
3.44651,-0.303808,-0.572965
3.41503,-0.174824,-0.601474
3.41723,-0.188608,0.15625
3.44682,-0.317272,0.0647096
3.45295,-0.321483,-0.188482
3.41019,-0.193532,-0.344482
3.50729,-0.459136,-0.419471
3.42581,-0.196219,-0.473952
3.42176,-0.196227,-0.60286
3.422,-0.209939,0.156524
3.4171,-0.212632,-0.0939585
3.46383,-0.343946,-0.189187
3.41329,-0.214069,-0.219003
3.45158,-0.343947,-0.315613
3.41861,-0.216859,-0.473131
3.42737,-0.217655,-0.604073
3.41765,-0.23073,0.156387
3.43491,-0.233882,0.0312472
3.41972,-0.233868,-0.0940682
3.46463,-0.365508,-0.18935
3.41847,-0.23612,-0.345586
3.42696,-0.23875,-0.604246
3.4354,-0.255102,0.0312654
3.43617,-0.256184,-0.094562
3.48316,-0.389087,-0.19049
3.43875,-0.276577,0.0313108
3.4415,-0.277826,-0.094754
3.48864,-0.411388,-0.190924
3.43998,-0.297931,0.031338
3.44571,-0.299457,-0.0949187
3.49596,-0.434016,-0.191466
3.48064,-0.433347,-0.319147
3.44087,-0.303212,-0.477099
3.48517,-0.452614,-0.0626947
3.45973,-0.322076,-0.0953576
3.50413,-0.456879,-0.192063
3.48581,-0.455729,-0.319872
3.45177,-0.325528,-0.478878
3.45371,-0.342904,-0.0952478
3.51016,-0.479588,-0.192552
3.45318,-0.345225,-0.350001
3.45858,-0.347593,-0.480109
3.46049,-0.365033,-0.0954947
3.51111,-0.501682,-0.192769
3.46584,-0.367983,-0.351506
3.46229,-0.369439,-0.48093
3.47507,-0.388145,-0.0959611
3.51191,-0.523805,-0.192986
3.47143,-0.390131,-0.352309
3.4698,-0.391788,-0.482298
3.48454,-0.410865,-0.0962903
3.52047,-0.547184,-0.193637
3.49088,-0.433347,-0.0965372
3.4941,-0.455534,-0.0967018
3.48607,-0.456219,-0.225138
3.49223,-0.4771,-0.0967292
3.49903,-0.47977,-0.226161
