2.90989,0.342645,0.0038865
2.89604,0.32301,0.00386527
2.88802,0.304187,0.00385201
2.98207,0.311357,-0.215235
2.86695,0.284192,0.0038215
2.8547,0.2653,0.00380293
2.8483,0.247087,0.00379232
2.9147,0.360408,-0.0241946
2.97251,0.366345,-0.134012
2.79279,0.22688,0.106172
2.85076,0.229686,0.00379365
2.91388,0.342167,-0.0241699
2.79114,0.209515,0.106059
2.83117,0.210632,0.00376579
2.904,0.322955,-0.024071
2.96355,0.216528,-0.323432
2.7844,0.191835,0.105756
2.82643,0.192847,0.00375783
2.89996,0.304504,-0.0240216
2.95788,0.197875,-0.322675
2.77156,0.173871,0.105226
2.82456,0.175315,0.00375385
2.87689,0.284246,-0.0238157
2.94912,0.17912,-0.321593
2.77856,0.1572,0.105453
2.8136,0.157311,0.00373794
2.86166,0.265021,-0.0236756
2.92963,0.27013,-0.131643
2.95676,0.270758,-0.242229
2.95016,0.161021,-0.321593
2.77149,0.139746,0.10515
2.80453,0.139547,0.00372467
2.94943,0.251848,-0.241497
2.94215,0.142483,-0.320619
2.75732,0.122075,0.104582
2.78235,0.121334,0.00369416
2.85174,0.228844,-0.0235685
2.84557,0.123096,-0.100358
2.939,0.232801,-0.240522
2.74803,0.104773,0.104203
2.79312,0.208419,0.0791164
2.77905,0.10411,0.00368886
2.84311,0.210603,-0.0234861
2.9354,0.2144,-0.240115
2.9548,0.104652,-0.431698
2.74163,0.087686,0.103938
2.78637,0.190731,0.0788905
2.77164,0.0868057,0.00367825
2.82839,0.19207,-0.0233543
2.89052,0.195124,-0.129631
2.93368,0.196185,-0.239871
2.95637,0.0865489,-0.431842
2.73013,0.0705522,0.103484
2.7825,0.17332,0.0787493
2.77012,0.0697472,0.00367559
2.82253,0.17428,-0.0232967
2.88168,0.282973,-0.051654
2.88269,0.176834,-0.129229
2.92388,0.177517,-0.238977
2.96087,0.177999,-0.351757
2.93805,0.0679724,-0.429097
2.73687,0.154728,0.177844
2.78151,0.156131,0.0786928
2.7635,0.0526155,0.00366631
2.81176,0.0525527,-0.0990907
2.91397,0.158975,-0.238082
2.96686,0.160095,-0.352346
2.94534,0.0500613,-0.430108
2.73477,0.137781,0.17765
2.77343,0.138612,0.0784387
2.76077,0.0356193,0.00366233
2.80448,0.138643,-0.0231319
2.80104,0.035161,-0.0987033
2.90991,0.140852,-0.237676
2.7256,0.120557,0.177003
2.76125,0.121023,0.0780716
2.75693,0.0186519,0.00365702
2.79629,0.121043,-0.0230578
2.9212,0.339783,-0.0807083
2.85651,0.122502,-0.127933
2.89579,0.122363,-0.236456
2.94579,0.122725,-0.349638
2.92198,0.0138015,-0.426641
2.95737,0.0103555,-0.543957
2.71931,0.103565,0.17655
2.70905,0.00350182,0.102651
2.75095,0.103664,0.0777611
2.80583,0.207675,0.0525976
2.734,0.0017208,0.00362651
2.79198,0.103698,-0.0230166
2.91627,0.321087,-0.0805162
2.83525,0.104165,-0.126949
2.89004,0.210865,-0.157493
2.88154,0.104053,-0.235236
2.87303,-0.00200262,-0.31272
2.96427,-0.00780895,-0.545223
2.70792,0.0864955,0.175773
2.69404,-0.0130481,0.102083
2.74154,0.0864678,0.0774787
2.80007,0.189981,0.0524667
2.73096,-0.0150382,0.00362253
2.77657,0.0860689,-0.0228848
2.90327,0.301637,-0.0801048
2.82485,0.0864304,-0.126458
2.8863,0.192796,-0.157222
2.8127,-0.0180412,-0.201917
2.87316,0.0861016,-0.234505
2.86601,-0.0195836,-0.311962
2.95236,-0.0258937,-0.543052
2.65349,0.0692958,0.269109
2.65449,-0.0280797,0.197786
2.69942,0.0696468,0.17519
2.69191,-0.0295562,0.102007
2.74002,0.0695936,0.0774222
2.72581,-0.0317365,0.0036159
2.81834,0.0689248,-0.126145
2.87447,0.174296,-0.156516
2.80157,-0.0351616,-0.20113
2.85968,0.0681382,-0.233366
2.8539,-0.037014,-0.310664
2.93149,-0.0437007,-0.539253
2.64989,0.0529335,0.268705
2.64031,-0.0441335,0.196746
2.69282,0.0529448,0.174737
2.74253,0.153589,0.151551
2.7394,0.0527606,0.077394
2.71557,-0.0482834,0.00360264
2.80972,0.0514659,-0.125742
2.86751,0.156221,-0.156082
2.79831,-0.0522951,-0.200915
2.85307,0.0504668,-0.232797
2.83772,-0.0542207,-0.308933
2.89176,-0.0573234,-0.422307
2.9352,0.0489987,-0.457185
2.9233,-0.0615216,-0.537806
2.65116,0.0366869,0.268806
2.61906,-0.0598549,0.195186
2.6871,0.03634,0.174348
2.74142,0.136659,0.151441
2.73267,0.0358591,0.0771963
2.77114,0.136831,0.0518686
2.71322,-0.0648971,0.00359999
2.75269,0.0346322,-0.0226788
2.87845,0.245597,-0.0792818
2.80199,0.0341275,-0.125385
2.85545,0.137997,-0.155376
2.84436,0.0328561,-0.232065
2.83435,-0.0715563,-0.308608
2.92952,0.0309251,-0.456262
2.92779,-0.0795912,-0.538711
2.56086,-0.072549,0.380546
2.58792,-0.0744004,0.288388
2.68129,0.0198073,0.17396
2.72625,0.119138,0.15056
2.72485,0.0190352,0.0769705
2.76493,0.119523,0.0517378
2.82498,0.224427,0.0257202
2.70777,-0.0813937,0.00359335
2.80015,0.0169221,-0.125295
2.83554,0.0153543,-0.231333
2.82193,-0.088572,-0.30731
2.94039,0.121607,-0.37736
2.87304,-0.092234,-0.419706
2.91978,0.0129056,-0.454723
2.55246,-0.0879882,0.379371
2.57748,-0.0899316,0.287281
2.64245,0.00413634,0.267898
2.60915,-0.091675,0.194517
2.66839,0.00333864,0.173118
2.71396,0.101921,0.149844
2.66041,-0.0945453,0.100871
2.71792,0.00230957,0.0767728
2.75862,0.102296,0.0516069
2.82331,0.20687,0.025693
2.79121,-0.000258802,-0.124893
2.82063,-0.00203378,-0.230114
2.81339,-0.105587,-0.306444
2.93712,0.103423,-0.376851
2.86154,-0.109445,-0.418117
2.91684,-0.00500493,-0.454262
2.57192,-0.105541,0.286728
2.63347,-0.0120366,0.26699
2.60655,-0.107601,0.194369
2.66536,-0.0130197,0.172924
2.71154,0.085172,0.149678
2.76977,0.18747,0.126742
2.65579,-0.110701,0.10072
2.70688,-0.0143092,0.0764622
2.7552,0.0852439,0.0515322
2.80957,0.188538,0.0255569
2.73386,-0.015931,-0.0225223
2.78816,-0.0173667,-0.124759
2.82256,-0.0193545,-0.230276
2.79382,-0.122024,-0.304388
2.9367,0.0853703,-0.376724
2.8539,-0.126694,-0.417105
2.91774,-0.02291,-0.454416
2.57626,-0.0262796,0.356954
2.56427,-0.120992,0.285953
2.62838,-0.0281418,0.266486
2.66025,-0.0293189,0.1726
2.70901,0.0684571,0.149513
2.76389,0.170042,0.126423
2.69975,-0.0308381,0.0762646
2.74468,0.0680641,0.0513266
2.80967,0.171235,0.0255478
2.68584,-0.130252,0.00356682
2.72271,-0.0325738,-0.0224317
2.782,-0.0344,-0.124491
2.80744,-0.0364787,-0.229057
2.79103,-0.139065,-0.304171
2.92726,0.067122,-0.375452
2.83824,-0.143453,-0.414938
2.91359,-0.0407571,-0.4538
2.95084,-0.0428751,-0.571615
2.52868,-0.133806,0.376138
2.56713,-0.0419411,0.355719
2.55752,-0.136407,0.285289
2.61522,-0.0440508,0.265175
2.65529,0.0521431,0.244174
2.59109,-0.138832,0.193328
2.64206,-0.0453331,0.171435
2.70239,0.0516999,0.149128
2.76189,0.152915,0.126286
2.62828,-0.141883,0.0997353
2.73605,0.0510539,0.0511583
2.79669,0.153226,0.0254207
2.71546,-0.0491527,-0.022374
2.79919,-0.0535516,-0.228406
2.85543,-0.0563228,-0.338686
2.90877,0.048843,-0.373036
2.82644,-0.16025,-0.413349
2.90242,-0.0584151,-0.452107
2.93874,-0.0607369,-0.569333
2.56188,-0.0575807,0.355032
2.5497,-0.151684,0.284514
2.596,-0.0596624,0.263258
2.65157,0.0357959,0.243808
2.59119,-0.154787,0.193403
2.63175,-0.0613112,0.170788
2.69567,0.0350265,0.148742
2.74681,0.135179,0.125556
2.62337,-0.157767,0.0995839
2.68817,-0.0637053,0.075954
2.73131,0.0342023,0.0510649
2.7826,0.135334,0.0252846
2.70811,-0.0656439,-0.0223164
2.7604,-0.0680201,-0.123552
2.79382,-0.0706002,-0.228
2.91091,0.138723,-0.293909
2.83915,-0.0734315,-0.336801
2.90009,0.0308991,-0.371891
2.82047,-0.177279,-0.412627
2.8862,-0.0758078,-0.449645
2.93439,-0.0786623,-0.568572
2.5585,-0.073214,0.354621
2.54177,-0.16687,0.283739
2.58763,-0.0753584,0.262451
2.64179,0.0194521,0.242892
2.57924,-0.169962,0.192585
2.68585,0.0184171,0.148191
2.7406,0.118022,0.125237
2.6074,-0.172869,0.0990159
2.72447,0.0173979,0.050934
2.70466,-0.0821683,-0.0222917
2.75394,-0.0847719,-0.123284
2.78636,-0.0875224,-0.22743
2.90674,0.120653,-0.293407
2.78205,-0.190009,-0.303522
2.84262,-0.0909779,-0.337272
2.90122,0.0131084,-0.372018
2.81143,-0.194037,-0.411471
2.88469,-0.0934838,-0.449491
2.9281,0.0120544,-0.484905
2.85986,-0.20089,-0.527314
2.926,-0.0964072,-0.567051
2.55306,-0.0887392,0.353934
2.60943,0.00475072,0.336174
2.53971,-0.182391,0.283628
2.57718,-0.0908837,0.261443
2.63588,0.00323471,0.242343
2.69202,0.100797,0.221527
2.57318,-0.185427,0.192214
2.61684,-0.0931055,0.169881
2.67693,0.00193017,0.147695
2.73129,0.100835,0.124781
2.60529,-0.188792,0.098978
2.72052,0.000679588,0.0508593
2.76606,0.100523,0.0251212
2.65391,-0.194085,0.00352968
2.7071,-0.0988717,-0.0223164
2.72949,-0.202102,-0.196476
2.7798,-0.104393,-0.226943
2.89748,0.102464,-0.292403
2.76695,-0.206042,-0.302007
2.89033,-0.0046757,-0.370619
2.81019,-0.211284,-0.411471
2.87123,-0.110687,-0.447491
2.92811,-0.00591225,-0.484905
2.85563,-0.218209,-0.526771
2.91947,-0.114129,-0.56591
2.50937,-0.101105,0.44197
2.54257,-0.103998,0.352562
2.59255,-0.0111878,0.334002
2.52665,-0.197044,0.2823
2.57856,-0.106778,0.261645
2.62789,-0.0128997,0.24161
2.6896,0.0841834,0.221281
2.56404,-0.20059,0.19162
2.61024,-0.108911,0.169493
2.67689,-0.0144952,0.147695
2.72287,0.0837978,0.124371
2.65958,-0.112039,0.0751916
2.71548,-0.0159838,0.0507658
2.75863,0.0833079,0.0250486
2.63971,-0.209338,0.00351244
2.69546,-0.115011,-0.0222258
2.74271,-0.118131,-0.122837
2.77014,-0.121056,-0.226211
2.75573,-0.222217,-0.300925
2.82442,-0.125107,-0.33527
2.87835,-0.0223181,-0.369093
2.92997,0.0840804,-0.404857
2.79602,-0.22748,-0.409593
2.85569,-0.127641,-0.445183
2.9221,-0.0238304,-0.483925
2.84934,-0.235322,-0.525867
2.904,-0.131375,-0.563058
2.50674,-0.116409,0.441623
2.54089,-0.11955,0.352425
2.58549,-0.0270226,0.333108
2.5254,-0.212544,0.2823
2.56991,-0.122219,0.260838
2.55183,-0.215396,0.190802
2.60852,-0.124877,0.169428
2.66776,-0.0308162,0.147199
2.72933,0.0672366,0.124644
2.64686,-0.127777,0.0748528
2.70733,-0.0325492,0.0506163
2.63738,-0.225445,0.00351111
2.68871,-0.131256,-0.0221763
2.73395,-0.134565,-0.122479
2.71587,-0.234638,-0.195688
2.7574,-0.137456,-0.225235
2.87564,0.0663716,-0.290096
2.74837,-0.238605,-0.300276
2.81071,-0.141785,-0.33374
2.86625,-0.0398135,-0.367567
2.78767,-0.244027,-0.408581
2.85189,-0.14501,-0.444721
2.91598,-0.0416751,-0.482944
2.83707,-0.251845,-0.523877
2.50302,-0.131632,0.441103
2.49051,-0.223954,0.371437
2.53516,-0.134876,0.351739
2.57238,-0.0426725,0.331447
2.51514,-0.22723,0.281303
2.56215,-0.137612,0.260132
2.67947,0.0509631,0.220379
2.54649,-0.23069,0.190505
2.59575,-0.140234,0.168651
2.66054,-0.0470611,0.146814
2.59441,-0.236081,0.098713
2.64503,-0.143962,0.0748245
2.70008,-0.0490334,0.0504854
2.74045,0.0491086,0.0248762
2.63296,-0.24135,0.00350713
2.68086,-0.147367,-0.0221187
2.7241,-0.15084,-0.122077
2.75153,-0.154094,-0.224828
2.86804,0.0485909,-0.289293
2.73695,-0.254544,-0.299194
2.85108,-0.0571019,-0.365659
2.91196,0.0478099,-0.402257
2.77528,-0.260112,-0.406992
2.84207,-0.162,-0.443336
2.90384,-0.0593246,-0.480984
2.83253,-0.268969,-0.523334
2.96044,-0.0618768,-0.603679
2.4943,-0.146526,0.439717
2.52935,-0.150135,0.351052
2.56513,-0.0582978,0.330552
2.5038,-0.241704,0.280196
2.55133,-0.152736,0.259123
2.67276,0.0344313,0.219806
2.53609,-0.245446,0.189836
2.58588,-0.155619,0.168068
2.65521,-0.063266,0.146538
2.71197,0.0335163,0.123823
2.58197,-0.250933,0.0982965
2.63512,-0.159644,0.0745704
2.69473,-0.0654785,0.050392
2.7377,0.0322572,0.024849
2.62347,-0.256722,0.00349652
2.67691,-0.16363,-0.0220939
2.71714,-0.167184,-0.121809
2.74059,-0.170355,-0.224015
2.73831,-0.271627,-0.299519
2.79191,-0.175209,-0.331738
2.84175,-0.0743612,-0.364514
2.90328,0.0298499,-0.401026
2.77757,-0.277529,-0.40757
2.82623,-0.178502,-0.441028
2.89257,-0.0768529,-0.479187
2.82006,-0.285255,-0.521345
2.88052,-0.183495,-0.559064
2.94336,-0.0795903,-0.600283
2.48746,-0.161445,0.438677
2.47479,-0.253191,0.369526
2.52146,-0.165199,0.350092
2.56076,-0.0739216,0.330041
2.62933,0.0195268,0.313258
2.5003,-0.256859,0.279975
2.54737,-0.168191,0.25882
2.59592,-0.0764783,0.238772
2.65896,0.0179368,0.218658
2.53949,-0.261513,0.190208
2.64279,-0.079198,0.145877
2.5774,-0.266462,0.0981829
2.63309,-0.175744,0.0745422
2.68829,-0.0818293,0.0502798
2.73084,0.0154189,0.0247854
2.61488,-0.27209,0.00348724
2.66987,-0.17965,-0.0220445
2.70727,-0.0838733,-0.0483186
2.76592,0.0147962,-0.0759075
2.73651,-0.186964,-0.223771
2.73066,-0.287799,-0.298869
2.78979,-0.192268,-0.33162
2.89549,0.0120023,-0.399931
2.76795,-0.293732,-0.406414
2.81621,-0.195225,-0.439643
2.89796,-0.0947935,-0.480167
2.9428,0.011993,-0.517628
2.81337,-0.302028,-0.52044
2.87444,-0.200824,-0.558114
2.93596,-0.0974214,-0.598884
2.48642,-0.176705,0.438677
2.51644,-0.180384,0.349543
2.55828,-0.0895633,0.329786
2.60359,0.00335981,0.310183
2.48978,-0.271227,0.278978
2.54033,-0.183389,0.258215
2.65205,0.00161715,0.218085
2.53289,-0.276549,0.189836
2.57183,-0.186474,0.167292
2.64226,-0.0954124,0.145877
2.57373,-0.282054,0.0981072
2.67374,-0.097811,0.0500182
2.72889,-0.00133656,0.0247673
2.65974,-0.195369,-0.0219704
2.70071,-0.100261,-0.0482116
2.76196,-0.00217225,-0.0757978
2.71896,-0.303446,-0.297787
2.77964,-0.208713,-0.33056
2.89352,-0.00576034,-0.399658
2.75331,-0.309274,-0.404536
2.81496,-0.212501,-0.439643
2.88057,-0.111922,-0.477389
2.94183,-0.00606189,-0.517455
2.80853,-0.318952,-0.519897
2.8663,-0.217936,-0.556782
2.93335,-0.115357,-0.598485
2.51233,-0.19559,0.349131
2.54777,-0.104851,0.328508
2.60356,-0.0126156,0.310183
2.49004,-0.286726,0.2792
2.53618,-0.198739,0.257913
2.64603,-0.0146225,0.217593
2.52421,-0.291285,0.189316
2.62965,-0.111117,0.145216
2.68815,-0.0162628,0.122729
2.67509,-0.1143,0.0500555
2.72183,-0.0180343,0.0247038
2.59942,-0.30277,0.00347132
2.64853,-0.210891,-0.021888
2.69505,-0.116614,-0.0481224
2.73334,-0.119657,-0.148701
2.71314,-0.218849,-0.222064
2.71803,-0.32024,-0.297895
2.77138,-0.225201,-0.329736
2.82207,-0.12586,-0.362225
2.88155,-0.023418,-0.398016
2.74743,-0.325696,-0.403958
2.79982,-0.228643,-0.437488
2.87194,-0.12924,-0.476082
2.92598,-0.0239834,-0.514683
2.85806,-0.234957,-0.555451
2.92475,-0.132998,-0.596887
2.47033,-0.206058,0.43625
2.50516,-0.210504,0.348308
2.54212,-0.120248,0.327869
2.5935,-0.0284814,0.309
2.49218,-0.302478,0.279643
2.525,-0.213459,0.256904
2.63393,-0.0307185,0.216609
2.51841,-0.306286,0.189019
2.55642,-0.216924,0.16645
2.61595,-0.126623,0.1445
2.68201,-0.0326837,0.122455
2.61347,-0.222822,0.0740904
2.66136,-0.130078,0.0498126
2.71167,-0.0346072,0.024613
2.59156,-0.317983,0.00346336
2.64619,-0.227053,-0.0218798
2.68629,-0.132753,-0.0479797
2.72957,-0.136277,-0.148538
2.70579,-0.234975,-0.221576
2.75907,-0.241251,-0.32844
2.80539,-0.14237,-0.36019
2.87343,-0.0409853,-0.396921
2.74243,-0.34218,-0.403525
2.79246,-0.2453,-0.436565
2.86617,-0.146607,-0.475266
2.91396,-0.041767,-0.512604
2.84776,-0.251711,-0.55374
2.91508,-0.150486,-0.595089
2.46411,-0.220772,0.435384
2.49691,-0.225249,0.347347
2.5354,-0.135526,0.327102
2.58831,-0.0443093,0.308408
2.48141,-0.316632,0.278646
2.51473,-0.228139,0.255996
2.61775,-0.0465956,0.215298
2.51154,-0.321101,0.188648
2.61413,-0.142617,0.144445
2.67277,-0.0489748,0.122045
2.60608,-0.238307,0.073921
2.7114,-0.051245,0.024613
2.57865,-0.332472,0.00344877
2.63479,-0.24237,-0.0217974
2.67944,-0.148901,-0.0478727
2.73547,-0.0525117,-0.0750845
2.71971,-0.152519,-0.14805
2.70132,-0.251296,-0.221332
2.75753,-0.258175,-0.32844
2.8652,-0.0584539,-0.395827
2.73243,-0.357973,-0.402369
2.78598,-0.261967,-0.435796
2.85536,-0.163627,-0.473632
2.91464,-0.0596661,-0.512778
2.78366,-0.368144,-0.51646
2.83835,-0.26844,-0.552219
2.90823,-0.168031,-0.59389
2.45781,-0.235418,0.434517
2.55039,-0.0576676,0.398661
2.49351,-0.240375,0.347073
2.52858,-0.150726,0.326336
2.58303,-0.0600746,0.307817
2.46464,-0.329874,0.276986
2.51229,-0.243469,0.255895
2.50754,-0.33624,0.188499
2.54264,-0.247216,0.165738
2.60623,-0.158231,0.144059
2.54524,-0.342335,0.097312
2.59761,-0.253613,0.0737233
2.64759,-0.161994,0.0495883
2.70004,-0.0676056,0.0245132
2.57557,-0.348154,0.00344744
2.62628,-0.257848,-0.0217397
2.67947,-0.1654,-0.0478905
2.7311,-0.0691939,-0.0749748
2.71075,-0.168708,-0.147616
2.69576,-0.267472,-0.221007
2.74305,-0.273808,-0.326909
2.85983,-0.0759019,-0.395142
2.72332,-0.37379,-0.401357
2.77449,-0.278071,-0.434257
2.84446,-0.180519,-0.471998
2.90929,-0.0774179,-0.511911
2.77258,-0.384003,-0.514832
2.83079,-0.28526,-0.551078
2.90128,-0.185497,-0.592692
2.44848,-0.249695,0.433131
2.48411,-0.254862,0.345975
2.52662,-0.166173,0.326208
2.5707,-0.0755726,0.306397
2.46553,-0.345405,0.277318
2.50976,-0.258777,0.255794
2.60602,-0.0783863,0.214397
2.5005,-0.350927,0.188127
2.59624,-0.17362,0.143563
2.65399,-0.0812201,0.121224
2.53913,-0.357388,0.0971605
2.59203,-0.269134,0.0736104
2.64155,-0.1779,0.0494948
2.68858,-0.0838287,0.0244133
2.56943,-0.363391,0.00344214
2.62266,-0.27375,-0.0217232
2.66843,-0.181161,-0.0477122
2.71963,-0.0856044,-0.074673
2.70269,-0.184861,-0.147236
2.68912,-0.283486,-0.2206
2.68279,-0.383053,-0.294974
2.73441,-0.289901,-0.326085
2.72196,-0.390634,-0.401502
2.7688,-0.294671,-0.433641
2.83444,-0.197352,-0.470528
2.90384,-0.0951063,-0.511045
2.75655,-0.399035,-0.5123
2.8202,-0.301684,-0.549366
2.9475,-0.0968453,-0.631746
2.44494,-0.264502,0.432784
2.52654,-0.181744,0.326336
2.56424,-0.0911331,0.305687
2.46041,-0.360094,0.276986
2.50021,-0.273307,0.254987
2.59752,-0.0940864,0.213741
2.49336,-0.36554,0.187756
2.53346,-0.277747,0.165349
2.58716,-0.188965,0.143123
2.65145,-0.0974298,0.121132
2.63642,-0.193812,0.04942
2.68802,-0.100324,0.0244133
2.56814,-0.379296,0.00344346
2.61795,-0.289507,-0.0216985
2.6583,-0.196866,-0.0475516
2.71905,-0.10229,-0.074673
2.69453,-0.200921,-0.146856
2.68336,-0.299538,-0.220275
2.67842,-0.399214,-0.294757
2.73258,-0.306674,-0.326085
2.77534,-0.209236,-0.356883
2.71364,-0.406448,-0.400635
2.76301,-0.311212,-0.433026
2.82531,-0.214144,-0.469221
2.89041,-0.112424,-0.508793
2.7521,-0.415648,-0.511938
2.92927,-0.114243,-0.627976
2.43642,-0.278716,0.431571
2.51829,-0.103346,0.393874
2.52142,-0.196935,0.325825
2.55569,-0.106534,0.304741
2.45422,-0.374585,0.276543
2.50047,-0.288872,0.255189
2.47727,-0.378722,0.186716
2.52775,-0.292828,0.16509
2.58098,-0.204442,0.142847
2.63982,-0.113226,0.120631
2.57562,-0.299422,0.0732433
2.62821,-0.209429,0.0492892
2.67237,-0.116164,0.0242772
2.6052,-0.304289,-0.0216079
2.65206,-0.212774,-0.0474624
2.71238,-0.11871,-0.0745084
2.69225,-0.21737,-0.146802
2.67949,-0.315764,-0.220112
2.7651,-0.225535,-0.355739
2.70523,-0.422176,-0.399768
2.75713,-0.327694,-0.43241
2.81017,-0.230347,-0.466933
2.88278,-0.129847,-0.50758
2.86807,-0.236454,-0.586699
2.91679,-0.131685,-0.625462
2.43076,-0.293188,0.430878
2.46253,-0.205814,0.410598
2.50435,-0.211069,0.32378
2.55201,-0.122071,0.304386
2.43912,-0.387609,0.275104
2.49075,-0.303247,0.254382
2.47983,-0.394699,0.187087
2.57172,-0.219595,0.142407
2.63309,-0.129128,0.120357
2.6209,-0.225039,0.049177
2.66461,-0.132212,0.0242137
2.59733,-0.319536,-0.0215585
2.64373,-0.22844,-0.0473376
2.70561,-0.135051,-0.0743438
2.6839,-0.23328,-0.146422
2.67553,-0.331954,-0.21995
2.7607,-0.242237,-0.355357
2.81655,-0.143989,-0.389533
2.75016,-0.343992,-0.431641
2.80281,-0.247066,-0.465953
2.87406,-0.147131,-0.506195
2.86364,-0.253788,-0.5861
2.42696,-0.30785,0.430531
2.46123,-0.22092,0.410598
2.50202,-0.226342,0.323652
2.54725,-0.137514,0.303913
2.4367,-0.402568,0.275104
2.48884,-0.318524,0.254382
2.57644,-0.140849,0.212184
2.47539,-0.409582,0.186939
2.50911,-0.32192,0.164119
2.56038,-0.23446,0.141856
2.63025,-0.145172,0.120266
2.50988,-0.416324,0.0964032
2.65377,-0.148003,0.0241229
2.54297,-0.423545,0.00341959
2.58838,-0.33457,-0.0215008
2.63332,-0.243828,-0.0471771
2.69276,-0.150979,-0.0740146
2.6864,-0.250114,-0.146639
2.67245,-0.348235,-0.219868
2.7483,-0.258152,-0.353958
2.81462,-0.161212,-0.389396
2.74604,-0.360603,-0.431333
2.79437,-0.26361,-0.464809
2.86327,-0.164199,-0.504462
2.85423,-0.270614,-0.584502
2.4744,-0.144956,0.48162
2.45197,-0.235264,0.409287
2.50413,-0.148978,0.392022
2.44861,-0.327397,0.342269
2.50058,-0.24169,0.323652
2.53843,-0.152664,0.302966
2.43124,-0.417007,0.274772
2.48289,-0.33326,0.253979
2.51746,-0.244829,0.232547
2.56857,-0.156231,0.21161
2.46398,-0.423243,0.18627
2.50709,-0.33731,0.164119
2.55988,-0.250263,0.141911
2.61934,-0.160696,0.11981
2.50531,-0.431377,0.0963275
2.6548,-0.164407,0.0241411
2.52948,-0.437267,0.003405
2.58429,-0.350177,-0.0214843
2.62281,-0.259096,-0.0470165
2.68679,-0.167188,-0.0738774
2.67488,-0.265606,-0.146096
2.66434,-0.363818,-0.219381
2.80765,-0.178103,-0.388575
2.73594,-0.376368,-0.430102
2.79564,-0.281047,-0.465299
2.85631,-0.18139,-0.503423
2.72654,-0.480502,-0.509224
2.84276,-0.287138,-0.582504
2.46269,-0.159438,0.479522
2.50119,-0.164211,0.391713
2.44656,-0.342415,0.342269
2.49018,-0.256116,0.322502
2.52952,-0.167711,0.30202
2.46602,-0.346412,0.252466
2.51194,-0.259861,0.23218
2.56259,-0.171656,0.2112
2.45938,-0.438004,0.186121
2.50201,-0.352269,0.163925
2.55433,-0.265552,0.14169
2.61233,-0.176361,0.119536
2.4977,-0.445863,0.0961382
2.65175,-0.180557,0.0241229
2.52872,-0.453132,0.00340765
2.58309,-0.366168,-0.0214926
2.62416,-0.275498,-0.04707
2.67774,-0.183125,-0.073658
2.66029,-0.280652,-0.145391
2.7321,-0.290495,-0.352305
2.72674,-0.392164,-0.429025
2.78504,-0.297253,-0.463829
2.84925,-0.198502,-0.502383
2.8351,-0.303948,-0.581305
2.88244,-0.201117,-0.618969
2.45383,-0.173991,0.477996
2.50309,-0.179767,0.392176
2.48363,-0.270853,0.321864
2.51953,-0.182583,0.300955
2.46188,-0.361248,0.252264
2.51228,-0.275486,0.232363
2.56248,-0.187449,0.211282
2.45076,-0.452001,0.185676
2.49487,-0.366889,0.163601
2.54471,-0.280346,0.14125
2.60621,-0.19202,0.119308
2.64062,-0.196084,0.0240322
2.51999,-0.467545,0.00339969
2.56793,-0.380107,-0.0213855
2.61049,-0.290268,-0.046856
2.66859,-0.198957,-0.0734385
2.65058,-0.296083,-0.144957
2.74131,-0.206255,-0.277251
2.72731,-0.30692,-0.351923
2.71842,-0.408007,-0.428102
2.77826,-0.313783,-0.463012
2.83521,-0.215012,-0.500131
2.88115,-0.2188,-0.618969
2.93326,-0.222706,-0.746716
2.45076,-0.188893,0.477614
2.49012,-0.194201,0.390323
2.47502,-0.285292,0.320969
2.5243,-0.198506,0.301665
2.45667,-0.375896,0.251961
2.50461,-0.290208,0.231814
2.55731,-0.202853,0.210955
2.43521,-0.464601,0.18471
2.48764,-0.381434,0.163278
2.53798,-0.295377,0.140974
2.60001,-0.20761,0.11908
2.48517,-0.475167,0.0958731
2.53321,-0.389463,0.0723963
2.58198,-0.301731,0.0485976
2.62442,-0.211081,0.023896
2.51413,-0.482433,0.00339571
2.5616,-0.395246,-0.0213525
2.60767,-0.306164,-0.0468382
2.66433,-0.215086,-0.0733562
2.64772,-0.312224,-0.144902
2.69857,-0.219178,-0.173375
2.71947,-0.322947,-0.35116
2.66454,-0.516939,-0.396301
2.71,-0.423763,-0.427178
2.77138,-0.33024,-0.462195
2.82402,-0.2316,-0.498399
2.86611,-0.235354,-0.616037
2.92025,-0.239748,-0.743764
2.44858,-0.203846,0.477423
2.42489,-0.292883,0.405845
2.48199,-0.208896,0.389242
2.47224,-0.300353,0.320841
2.51215,-0.213068,0.300364
2.45039,-0.390336,0.251558
2.49191,-0.304243,0.230807
2.558,-0.218711,0.211118
2.43818,-0.480692,0.185155
2.47835,-0.39559,0.162824
2.53216,-0.310459,0.140754
2.59172,-0.22296,0.118761
2.47338,-0.488663,0.0955324
2.52683,-0.404368,0.0722833
2.57015,-0.316346,0.0484107
2.62008,-0.226921,0.0238688
2.5532,-0.410005,-0.0213031
2.66694,-0.231776,-0.0734659
2.63981,-0.327727,-0.144577
2.69021,-0.235124,-0.172928
2.71744,-0.339628,-0.35116
2.77579,-0.244605,-0.384881
2.69955,-0.439115,-0.425947
2.76441,-0.346625,-0.461378
2.82058,-0.24875,-0.498053
2.44043,-0.218254,0.476088
2.4787,-0.223944,0.388934
2.46051,-0.314261,0.319564
2.51574,-0.228928,0.300955
2.44009,-0.404064,0.250751
2.48308,-0.318641,0.230166
2.54867,-0.233674,0.210463
2.42932,-0.49445,0.18471
2.47391,-0.410462,0.162695
2.52426,-0.325224,0.140423
2.58135,-0.238033,0.11835
2.52134,-0.419372,0.0721986
2.56618,-0.331854,0.0483733
2.61267,-0.242439,0.0238143
2.49626,-0.510843,0.00337979
2.55064,-0.425664,-0.0213031
2.65452,-0.247117,-0.0731642
2.6328,-0.343272,-0.144305
2.7094,-0.355521,-0.350397
2.64734,-0.547394,-0.394711
2.70168,-0.456494,-0.426717
2.75441,-0.362551,-0.460071
2.81116,-0.265312,-0.496667
2.8484,-0.269128,-0.612895
2.90551,-0.274472,-0.740811
2.46941,-0.238389,0.387698
2.45657,-0.329089,0.319308
2.50243,-0.243208,0.299536
2.43659,-0.41886,0.25065
2.47516,-0.333074,0.229617
2.53925,-0.248531,0.209807
2.4116,-0.506273,0.183595
2.46839,-0.425126,0.162501
2.51727,-0.340038,0.140148
2.46133,-0.517744,0.0953052
2.56013,-0.347056,0.0482985
2.60417,-0.257776,0.0237508
2.49308,-0.52615,0.00337979
2.53911,-0.43977,-0.021229
2.58376,-0.351683,-0.0465171
2.644,-0.262511,-0.0729173
2.63361,-0.359826,-0.144468
2.67024,-0.266435,-0.171841
2.65316,-0.363441,-0.243664
2.71166,-0.271093,-0.274843
2.70029,-0.371193,-0.349507
2.69396,-0.472209,-0.425947
2.75115,-0.37931,-0.459908
2.79968,-0.281571,-0.494934
2.90474,-0.292392,-0.741057
2.42585,-0.246992,0.473799
2.4679,-0.253536,0.387698
2.4437,-0.342641,0.317903
2.4999,-0.258456,0.299417
2.42516,-0.432232,0.249742
2.47307,-0.348255,0.229617
2.45984,-0.439211,0.162112
2.51316,-0.355198,0.140038
2.45518,-0.532202,0.0951916
2.50125,-0.44764,0.0717751
2.60552,-0.274064,0.023778
2.48394,-0.540163,0.00337184
2.53341,-0.454811,-0.0212043
2.57858,-0.367107,-0.0464636
2.63737,-0.278205,-0.0727801
2.62839,-0.375555,-0.144305
2.66459,-0.282393,-0.171586
2.64792,-0.37929,-0.243392
2.70302,-0.286991,-0.274141
2.69207,-0.386908,-0.348743
2.68907,-0.488377,-0.425639
2.73608,-0.394354,-0.457784
2.79202,-0.298116,-0.493895
2.8971,-0.309592,-0.739581
2.4321,-0.262716,0.475325
2.4604,-0.268032,0.386772
2.44352,-0.357916,0.318158
2.49037,-0.272924,0.298471
2.41561,-0.44584,0.249036
2.46399,-0.362408,0.228976
2.45416,-0.453752,0.161918
2.51094,-0.370612,0.140038
2.44894,-0.546604,0.095078
2.54579,-0.376982,0.0481116
2.59584,-0.28916,0.0237054
2.48351,-0.556049,0.00337581
2.52566,-0.469434,-0.0211631
2.57332,-0.382481,-0.0464101
2.62766,-0.293495,-0.0725606
2.56624,-0.478043,-0.116802
2.62208,-0.391086,-0.144088
2.65487,-0.297847,-0.171074
2.63865,-0.394499,-0.242758
2.58845,-0.583152,-0.288806
2.68768,-0.403125,-0.348489
2.68116,-0.503955,-0.42487
2.7258,-0.409961,-0.456477
2.78133,-0.314247,-0.492336
2.82159,-0.319095,-0.608286
2.89226,-0.327036,-0.738843
2.41679,-0.276074,0.472655
2.45184,-0.282333,0.385691
2.4778,-0.286943,0.29717
2.46073,-0.377369,0.228884
2.52534,-0.294191,0.20907
2.45231,-0.468989,0.161983
2.50072,-0.384797,0.139597
2.55191,-0.29864,0.117301
2.44457,-0.561396,0.0950401
2.49262,-0.477736,0.0716904
2.54145,-0.392291,0.0480742
2.5811,-0.303564,0.0235875
2.47128,-0.569257,0.00336388
2.5188,-0.484167,-0.0211301
2.55906,-0.396427,-0.0461961
2.61986,-0.30891,-0.072396
2.56032,-0.493213,-0.116668
2.61174,-0.405941,-0.143654
2.65002,-0.31378,-0.170883
2.63028,-0.409762,-0.242214
2.67928,-0.41869,-0.347726
2.6722,-0.519266,-0.423947
2.72031,-0.42622,-0.455987
2.77935,-0.331307,-0.492336
2.7126,-0.528641,-0.535295
2.81861,-0.336286,-0.608077
2.47205,-0.30166,0.296696
2.45542,-0.39199,0.22861
2.44057,-0.482287,0.1614
2.49437,-0.399502,0.139377
2.54606,-0.313804,0.117119
2.53604,-0.407402,0.0480182
2.57721,-0.31915,0.0235693
2.4619,-0.583027,0.00335592
2.51284,-0.499029,-0.0211054
2.55165,-0.411326,-0.0461069
2.60502,-0.323378,-0.0720394
2.64508,-0.329664,-0.170691
2.6228,-0.425097,-0.241761
2.68543,-0.335217,-0.272937
2.67372,-0.434644,-0.347344
2.66315,-0.534486,-0.423023
2.7118,-0.441952,-0.455007
2.76945,-0.347374,-0.49095
2.64796,-0.636222,-0.500903
2.70642,-0.544694,-0.534724
2.81649,-0.353574,-0.608077
2.79526,-0.458359,-0.688208
2.44133,-0.311524,0.38461
2.47212,-0.317076,0.296933
2.44806,-0.406234,0.228152
2.50869,-0.323501,0.208004
2.43463,-0.496654,0.161206
2.4899,-0.414472,0.139267
2.42875,-0.589232,0.0946993
2.47384,-0.505686,0.0713233
2.52461,-0.421473,0.04785
2.57223,-0.33457,0.0235421
2.45536,-0.597413,0.00335194
2.51071,-0.514639,-0.0211136
2.54908,-0.426975,-0.0461069
2.59902,-0.338839,-0.0719297
2.6341,-0.344722,-0.170116
2.582,-0.532022,-0.215071
2.62112,-0.441348,-0.241852
2.67938,-0.351171,-0.272535
2.67003,-0.450877,-0.347217
2.65402,-0.549614,-0.4221
2.71001,-0.458747,-0.45517
2.76531,-0.364103,-0.490603
2.62109,-0.646803,-0.496562
2.69822,-0.560292,-0.533773
2.81621,-0.371105,-0.608496
2.43742,-0.326236,0.384302
2.47013,-0.332238,0.296933
2.43963,-0.420233,0.227603
2.49876,-0.33782,0.207348
2.42178,-0.509529,0.160558
2.47944,-0.428382,0.138826
2.40764,-0.599775,0.0940178
2.47069,-0.520855,0.0713233
2.52198,-0.436956,0.04785
2.56418,-0.349536,0.0234876
2.44874,-0.61174,0.00334796
2.49772,-0.527966,-0.0210313
2.5405,-0.441581,-0.0459999
2.59491,-0.35451,-0.0718748
2.58317,-0.450344,-0.142514
2.63589,-0.36142,-0.170372
2.57479,-0.547027,-0.214746
2.60757,-0.455537,-0.240855
2.66731,-0.366251,-0.271532
2.6633,-0.466566,-0.346708
2.7104,-0.373613,-0.377903
2.64673,-0.565064,-0.421485
2.75913,-0.380526,-0.48991
2.69185,-0.576221,-0.533203
2.80129,-0.38664,-0.605773
2.4592,-0.346143,0.295868
2.47283,-0.442883,0.138605
2.46647,-0.535793,0.0712951
2.50449,-0.449771,0.0475696
2.55902,-0.36484,0.0234604
2.44107,-0.625761,0.00334265
2.49151,-0.542644,-0.0210065
2.53479,-0.456629,-0.0459464
2.59071,-0.370142,-0.0718199
2.57544,-0.465298,-0.142243
2.61782,-0.375321,-0.169349
2.56262,-0.560897,-0.214014
2.65812,-0.381621,-0.270829
2.65453,-0.481836,-0.345945
2.70021,-0.389106,-0.376808
2.58855,-0.669203,-0.390377
2.64321,-0.581293,-0.421485
2.69641,-0.490556,-0.453863
2.74894,-0.396324,-0.488525
2.67868,-0.590613,-0.531301
2.83962,-0.40965,-0.728263
2.45015,-0.360215,0.29504
2.48752,-0.367439,0.206775
2.46909,-0.457866,0.13855
2.45533,-0.549172,0.0710692
2.5066,-0.466044,0.047663
2.55178,-0.379799,0.023415
2.43815,-0.640981,0.00334398
2.48227,-0.556608,-0.0209571
2.53292,-0.472357,-0.0459642
2.58542,-0.385589,-0.0717376
2.56272,-0.479257,-0.1417
2.62435,-0.392706,-0.169924
2.50654,-0.661393,-0.186093
2.56205,-0.577268,-0.214258
2.59493,-0.486218,-0.240221
2.65278,-0.397481,-0.270528
2.64763,-0.497383,-0.345437
2.69679,-0.40552,-0.376671
2.69044,-0.506544,-0.453373
2.73574,-0.411572,-0.486619
2.6683,-0.605517,-0.52997
2.72965,-0.515258,-0.566323
2.7915,-0.420259,-0.604725
2.44593,-0.374941,0.294804
2.48226,-0.38224,0.206529
2.45937,-0.471691,0.138165
2.44899,-0.563555,0.0709845
2.49485,-0.479716,0.0474948
2.54842,-0.395296,0.0234059
2.43321,-0.655669,0.00334265
2.47297,-0.57048,-0.0209077
2.52507,-0.486943,-0.045875
2.57609,-0.400371,-0.0715456
2.51804,-0.581944,-0.11564
2.55974,-0.494972,-0.1417
2.59092,-0.501941,-0.24013
2.65029,-0.413751,-0.270528
2.64355,-0.51343,-0.345309
2.69621,-0.422366,-0.376945
2.73025,-0.427893,-0.486099
2.65115,-0.618754,-0.527308
2.44064,-0.389472,0.294449
2.45447,-0.486384,0.138055
2.48794,-0.494236,0.0474201
2.54397,-0.410607,0.0233878
2.42721,-0.670055,0.00334
2.46747,-0.585182,-0.0208912
2.52497,-0.503013,-0.0459285
2.56865,-0.415372,-0.0714085
2.51248,-0.596921,-0.115551
2.55469,-0.510278,-0.141592
2.61046,-0.423443,-0.169349
2.64083,-0.428889,-0.269826
2.61285,-0.625248,-0.418407
2.67145,-0.536995,-0.451249
2.72951,-0.444955,-0.486446
2.71832,-0.547749,-0.565324
2.77358,-0.452437,-0.602002
2.43527,-0.403953,0.294094
2.44655,-0.500435,0.137779
2.43898,-0.592857,0.0708998
2.48094,-0.508689,0.0473453
2.53746,-0.425547,0.0233515
2.41728,-0.683303,0.00333204
2.45801,-0.598891,-0.0208418
2.5189,-0.517892,-0.045875
2.56014,-0.430132,-0.0712439
2.5476,-0.525137,-0.141375
2.64011,-0.445415,-0.270027
2.68106,-0.453768,-0.375577
2.60608,-0.640561,-0.417945
2.66714,-0.553176,-0.451086
2.72673,-0.461694,-0.486446
2.70915,-0.563221,-0.564126
2.76304,-0.46814,-0.600327
2.42491,-0.41754,0.293147
2.43464,-0.513582,0.137283
2.4256,-0.60539,0.0706174
2.47191,-0.522662,0.0472331
2.52298,-0.439051,0.0232426
2.45429,-0.613961,-0.0208418
2.51372,-0.532924,-0.0458393
2.55548,-0.445489,-0.071189
2.53652,-0.539098,-0.140941
2.59327,-0.453383,-0.168582
2.56664,-0.546436,-0.238771
2.62753,-0.459891,-0.269023
2.67725,-0.470038,-0.37544
2.5516,-0.74386,-0.388065
2.60019,-0.656056,-0.417638
2.71512,-0.476883,-0.484887
2.69032,-0.576549,-0.56093
2.74953,-0.483223,-0.598023
2.45154,-0.439351,0.204808
2.42266,-0.526603,0.136787
2.41215,-0.617782,0.0703351
2.47061,-0.538245,0.0472705
2.50843,-0.452394,0.0231337
2.44079,-0.626523,-0.0207594
2.49477,-0.544924,-0.045554
2.55369,-0.461339,-0.0712164
2.53219,-0.554438,-0.140886
2.57277,-0.466084,-0.167432
2.6178,-0.474762,-0.268321
2.61175,-0.574105,-0.342893
2.54415,-0.758654,-0.387632
2.59228,-0.671008,-0.417022
2.70342,-0.491947,-0.483327
2.73496,-0.497983,-0.595509
2.44585,-0.453839,0.204562
2.41451,-0.540368,0.136512
2.46336,-0.552519,0.0471958
2.50167,-0.467043,0.0230974
2.43496,-0.640978,-0.0207429
2.49236,-0.560441,-0.0455718
2.54982,-0.476815,-0.071189
2.48258,-0.65458,-0.11488
2.52581,-0.569307,-0.140723
2.57182,-0.48223,-0.16756
2.51305,-0.664301,-0.212062
2.55294,-0.576356,-0.238137
2.61288,-0.490448,-0.26812
2.60431,-0.589244,-0.342384
2.66251,-0.501208,-0.374209
2.58525,-0.686141,-0.41656
2.64304,-0.599122,-0.448798
2.70229,-0.50889,-0.483674
2.43226,-0.466772,0.20366
2.47496,-0.476311,0.115067
2.45895,-0.567398,0.0471771
2.49581,-0.481815,0.0230701
2.42905,-0.655386,-0.0207265
2.48205,-0.574145,-0.0454469
2.539,-0.490934,-0.0709695
2.47659,-0.66928,-0.114791
2.52033,-0.584343,-0.140615
2.56489,-0.497241,-0.167304
2.50219,-0.677884,-0.211493
2.55517,-0.593362,-0.23868
2.61178,-0.50685,-0.268321
2.59775,-0.604539,-0.342003
2.57814,-0.701213,-0.416099
2.63547,-0.614432,-0.448145
2.69428,-0.52452,-0.482808
2.46611,-0.490319,0.114793
2.44374,-0.579706,0.0469528
2.49085,-0.496729,0.023052
2.42017,-0.668946,-0.0206853
2.4707,-0.587514,-0.0453043
2.46763,-0.68313,-0.114567
2.51087,-0.598407,-0.140289
2.56277,-0.513166,-0.167368
2.49414,-0.692158,-0.211168
2.54277,-0.606948,-0.237865
2.60764,-0.522671,-0.26822
2.59302,-0.620236,-0.341875
2.64548,-0.531696,-0.372704
2.56998,-0.715958,-0.415483
2.62589,-0.629212,-0.447165
2.67942,-0.538713,-0.480729
2.43528,-0.593506,0.0468593
2.4858,-0.5116,0.0230338
2.47094,-0.603612,-0.0453756
2.52495,-0.52044,-0.0707501
2.39825,-0.775243,-0.0888084
2.45954,-0.697169,-0.114388
2.50812,-0.61404,-0.140344
2.55371,-0.527669,-0.166985
2.48889,-0.707176,-0.211087
2.5419,-0.62325,-0.238137
2.59172,-0.536041,-0.266916
2.63247,-0.545907,-0.371335
2.55793,-0.729546,-0.414252
2.61911,-0.644605,-0.446674
2.45209,-0.51889,0.114428
2.42772,-0.607467,0.0467845
2.48261,-0.526843,0.0230338
2.45943,-0.616816,-0.0452329
2.52073,-0.535715,-0.0707226
2.45042,-0.710855,-0.114165
2.49365,-0.626741,-0.139747
2.54652,-0.542497,-0.166729
2.49024,-0.724104,-0.211575
2.52933,-0.636647,-0.237321
2.58157,-0.550481,-0.266214
2.62713,-0.561635,-0.371062
2.61319,-0.66018,-0.446348
2.44691,-0.533501,0.114337
2.42104,-0.621606,0.0467285
2.46956,-0.53993,0.0229431
2.44979,-0.6304,-0.0451259
2.51642,-0.550958,-0.0706952
2.44506,-0.725593,-0.11412
2.48686,-0.641281,-0.139584
2.53437,-0.556187,-0.166154
2.48002,-0.737666,-0.211087
2.52249,-0.651408,-0.237049
2.57815,-0.566311,-0.266214
2.61686,-0.576253,-0.370104
2.6024,-0.674469,-0.445204
2.66328,-0.58667,-0.47969
2.43287,-0.546098,0.113835
2.41041,-0.634667,0.0465976
2.46425,-0.554634,0.0229249
2.43482,-0.738842,-0.113852
2.47515,-0.654486,-0.13915
2.53091,-0.571727,-0.166154
2.47068,-0.751419,-0.21068
2.50785,-0.664069,-0.236053
2.57268,-0.581681,-0.266013
2.45953,-0.848053,-0.283179
2.61618,-0.592956,-0.370514
2.59631,-0.689918,-0.444877
2.65099,-0.60104,-0.47813
2.42071,-0.558993,0.113425
2.4569,-0.568842,0.0228886
2.49292,-0.577959,-0.0702288
2.42833,-0.753176,-0.113763
2.47013,-0.6694,-0.139095
2.53027,-0.587923,-0.166345
2.46317,-0.765677,-0.210436
2.49988,-0.678401,-0.23569
2.56713,-0.597005,-0.265812
2.45241,-0.862469,-0.282963
2.55459,-0.69454,-0.339459
2.58536,-0.704021,-0.443734
2.64437,-0.616624,-0.477611
2.41432,-0.573143,0.113288
2.45629,-0.584601,0.0229159
2.48932,-0.593244,-0.0702288
2.42176,-0.767458,-0.113673
2.46309,-0.683743,-0.138933
2.52274,-0.60251,-0.16609
2.45272,-0.778966,-0.209948
2.49663,-0.693994,-0.235781
2.56341,-0.612745,-0.265812
2.44613,-0.877165,-0.282855
2.54359,-0.708339,-0.338569
2.60292,-0.623631,-0.369694
2.62809,-0.629854,-0.475359
2.44391,-0.597524,0.0228342
2.4769,-0.606368,-0.0699819
2.41226,-0.780765,-0.11345
2.45308,-0.697205,-0.138607
2.51318,-0.616551,-0.165706
2.44411,-0.792771,-0.209623
2.49137,-0.709028,-0.23569
2.55671,-0.627751,-0.265511
2.53348,-0.722301,-0.337805
2.5952,-0.638643,-0.369146
2.62322,-0.645732,-0.475185
2.43923,-0.612265,0.0228251
2.4741,-0.621798,-0.0700094
2.40268,-0.793984,-0.113226
2.49773,-0.629036,-0.16494
2.44393,-0.809319,-0.21003
2.529,-0.737833,-0.337805
2.61348,-0.660368,-0.474146
2.42768,-0.625225,0.0227525
2.46637,-0.635969,-0.0698996
2.49093,-0.643601,-0.164748
2.43514,-0.823023,-0.209704
2.47198,-0.73642,-0.234693
2.54207,-0.657335,-0.264809
2.52442,-0.753337,-0.337805
2.6027,-0.674662,-0.472933
2.4209,-0.639343,0.0227253
2.45565,-0.649301,-0.0697076
2.43601,-0.741078,-0.13839
2.48983,-0.659639,-0.16494
2.42439,-0.836,-0.209217
2.52837,-0.67037,-0.263805
2.46946,-0.853183,-0.309834
2.51501,-0.767365,-0.33717
2.57343,-0.683761,-0.367778
2.40824,-0.651834,0.0226436
2.44294,-0.662004,-0.0694607
2.4761,-0.672289,-0.164301
2.41639,-0.849868,-0.208973
2.52229,-0.68535,-0.263605
2.44365,-0.678318,-0.0695979
2.40926,-0.864006,-0.20881
2.50941,-0.698412,-0.262702
2.4279,-0.69002,-0.0692687
2.41436,-0.783326,-0.137956
2.47054,-0.703444,-0.164492
2.39829,-0.876719,-0.208322
2.50125,-0.712706,-0.2623
2.49291,-0.811073,-0.336152
2.41235,-0.799067,-0.138118
2.45564,-0.715519,-0.163789
2.43878,-0.808766,-0.233787
2.49396,-0.727204,-0.261999
2.53781,-0.741432,-0.365178
2.45503,-0.731713,-0.164045
2.43094,-0.822757,-0.233515
2.48755,-0.741925,-0.261798
2.52752,-0.755288,-0.364357
2.44381,-0.744727,-0.163598
2.42491,-0.837332,-0.233425
2.48961,-0.759205,-0.262501
2.51715,-0.769046,-0.363537
2.44491,-0.761488,-0.163981
2.47731,-0.772099,-0.261698
2.51239,-0.784476,-0.363537
2.43639,-0.775265,-0.163725
2.41257,-0.866354,-0.233244
2.47821,-0.789096,-0.2623
2.43159,-0.7902,-0.163725
2.46575,-0.801826,-0.261497
2.42764,-0.805419,-0.163789
2.45606,-0.815373,-0.260996
2.4529,-0.831066,-0.261196
2.39871,-0.828633,-0.162511
2.44775,-0.846101,-0.261196
2.44252,-0.861104,-0.261196
2.42876,-0.873046,-0.260293
2.42055,-0.886905,-0.259992
