2.82835,0.724836,-0.317806
2.83468,0.70795,-0.318022
2.83441,0.693418,0.00387058
2.8256,0.798446,-0.239546
2.83703,0.690073,-0.317806
2.82564,0.779768,-0.239139
2.83638,0.671508,-0.317265
2.83037,0.762415,-0.239139
2.83463,0.652753,-0.316615
2.81567,0.851673,-0.159881
2.82825,0.743261,-0.23857
2.83956,0.635565,-0.316724
2.82778,0.630804,-0.423029
2.83201,0.619589,0.00384538
2.82873,0.727966,-0.0240628
2.81318,0.832115,-0.159447
2.82407,0.723666,-0.237838
2.83256,0.61365,-0.423173
2.83283,0.601577,0.0038414
2.82733,0.709136,-0.0240134
2.80673,0.81151,-0.158796
2.82652,0.705841,-0.237676
2.83201,0.705428,-0.346105
2.83337,0.595648,-0.42274
2.84038,0.584991,0.0038467
2.8326,0.692012,-0.0240216
2.81261,0.794544,-0.15885
2.81918,0.685658,-0.2367
2.85077,0.58319,-0.316724
2.83918,0.68874,-0.346458
2.84182,0.57924,-0.423462
2.84588,0.567943,0.00384936
2.82706,0.672305,-0.0239392
2.81647,0.777006,-0.158796
2.85137,0.565107,-0.316399
2.84046,0.670622,-0.346105
2.84244,0.549142,0.00384007
2.82724,0.654044,-0.0239063
2.811,0.758493,-0.0519394
2.82022,0.75945,-0.158741
2.83127,0.651906,-0.237025
2.83871,0.651847,-0.345398
2.82592,0.637104,0.081827
2.84379,0.531324,0.00383742
2.83217,0.636904,-0.0239145
2.8127,0.740467,-0.0518859
2.83651,0.636684,-0.130078
2.82,0.740863,-0.15847
2.80778,0.847823,-0.187818
2.8284,0.632997,-0.236456
2.8327,0.620394,0.0819117
2.85093,0.514575,0.00384273
2.83114,0.618447,-0.0238733
2.81719,0.723195,-0.0518859
2.80527,0.828318,-0.187306
2.83223,0.615631,-0.236456
2.8564,0.511651,-0.315858
2.84154,0.506891,-0.42144
2.84871,0.498092,0.10958
2.83743,0.603209,0.0819399
2.83293,0.600649,-0.0238568
2.8194,0.815209,-0.0805437
2.82597,0.705475,-0.158307
2.84376,0.599887,-0.237107
2.85067,0.492591,-0.314884
2.84947,0.490285,-0.422162
2.85368,0.480935,0.109656
2.83814,0.585182,0.0818552
2.85604,0.479386,0.0038414
2.84048,0.584061,-0.0238898
2.81762,0.795992,-0.0803517
2.82443,0.686707,-0.157981
2.83567,0.58003,-0.236131
2.84971,0.474437,-0.314451
2.85243,0.472791,-0.422162
2.83776,0.566973,0.0817423
2.83616,0.565058,-0.0238239
2.81474,0.776561,-0.0801322
2.84211,0.563201,-0.236375
2.86042,0.458201,-0.315317
2.85136,0.454657,-0.421584
2.84315,0.54993,0.0817987
2.84154,0.548023,-0.0238404
2.81656,0.758496,-0.0800499
2.84551,0.545751,-0.236375
2.86416,0.440792,-0.315425
2.85395,0.545615,-0.344574
2.8541,0.437153,-0.421584
2.84288,0.530211,-0.0238239
2.81633,0.739929,-0.0799127
2.84391,0.527372,-0.235968
2.86091,0.422339,-0.314776
2.85627,0.527912,-0.344456
2.86162,0.420351,-0.422307
2.8358,0.513664,0.186973
2.84608,0.512757,-0.0238239
2.82081,0.722635,-0.0799127
2.84022,0.508683,-0.235399
2.8605,0.404359,-0.314451
2.86905,0.403474,-0.423029
2.85699,0.398219,-0.53057
2.83889,0.496255,0.186973
2.8518,0.497332,0.0817705
2.82767,0.599361,0.0540368
2.84622,0.494771,-0.0237992
2.81646,0.703134,-0.0796658
2.84132,0.490906,-0.235236
2.87147,0.385862,-0.423029
2.84553,0.488719,-0.449645
2.85938,0.380682,-0.53057
2.83893,0.478329,0.186779
2.85086,0.479161,0.0816576
2.84109,0.584012,0.0542237
2.81758,0.68596,0.0263192
2.83934,0.475645,-0.0237168
2.8285,0.687729,-0.0798853
2.85608,0.475427,-0.236212
2.85375,0.473299,-0.343043
2.86397,0.366978,-0.421584
2.85776,0.362635,-0.529847
2.84674,0.461699,0.187102
2.85276,0.4615,0.0816293
2.84168,0.565983,0.0541676
2.82076,0.668428,0.0263101
2.84911,0.459329,-0.0237745
2.81904,0.667138,-0.0795012
2.85206,0.45679,-0.235643
2.87042,0.352001,-0.314776
2.86052,0.456405,-0.343514
2.86027,0.34868,-0.420717
2.84644,0.452986,-0.448876
2.86677,0.345918,-0.531113
2.84755,0.443916,0.186973
2.83023,0.547053,0.159044
2.8585,0.444448,0.081714
2.84215,0.547968,0.0541116
2.81994,0.649985,0.0262648
2.85385,0.442144,-0.0237909
2.82211,0.649603,-0.0794738
2.85917,0.441793,-0.129452
2.82258,0.64826,-0.185453
2.85874,0.439888,-0.235968
2.86857,0.333922,-0.314343
2.8613,0.438544,-0.343278
2.86727,0.331692,-0.42144
2.84819,0.435363,-0.448722
2.87372,0.32888,-0.532018
2.8443,0.425549,0.186584
2.8592,0.426605,0.0816576
2.82095,0.632014,0.0262375
2.85849,0.424919,-0.0238074
2.8559,0.423362,-0.129184
2.85646,0.421611,-0.235562
2.87254,0.316532,-0.314559
2.86394,0.420979,-0.343278
2.87909,0.315169,-0.422884
2.85178,0.418022,-0.448876
2.88057,0.31177,-0.532922
2.84604,0.408885,0.291501
2.84389,0.407664,0.18639
2.83575,0.512103,0.158989
2.85879,0.408629,0.0815729
2.84965,0.513227,0.0541303
2.82282,0.614268,0.0262194
2.87211,0.302511,0.00383079
2.84521,0.405116,-0.0236756
2.86689,0.405192,-0.236212
2.87443,0.298901,-0.314559
2.87999,0.297395,-0.42274
2.87265,0.293091,-0.531113
2.86149,0.399947,-0.559635
2.85145,0.39182,0.291803
2.85227,0.39102,0.186779
2.83392,0.493837,0.158713
2.82556,0.596729,0.0262103
2.87192,0.284685,0.00382813
2.84764,0.387651,-0.0236756
2.87979,0.279527,-0.422451
2.85768,0.383126,-0.44903
2.87341,0.275366,-0.530932
2.86291,0.382252,-0.559445
2.85775,0.374834,0.292207
2.86154,0.374418,0.187232
2.83493,0.476108,0.158603
2.84166,0.583645,0.132443
2.84094,0.475741,0.0538499
2.82917,0.579381,0.0262103
2.87262,0.266965,0.00382681
2.8569,0.371072,-0.0237333
2.8667,0.369344,-0.235806
2.87554,0.261315,-0.421584
2.86291,0.36596,-0.449491
2.87603,0.257817,-0.531113
2.86423,0.364554,-0.559254
2.85506,0.356676,0.291702
2.86379,0.356852,0.187232
2.84174,0.459342,0.158823
2.83735,0.564638,0.132078
2.84775,0.458937,0.0539247
2.82874,0.561232,0.026174
2.86012,0.353659,-0.0237415
2.86199,0.350898,-0.235236
2.8651,0.348387,-0.449491
2.88638,0.240902,-0.532741
2.86544,0.346855,-0.559064
2.86016,0.339503,0.292005
2.8445,0.441896,0.158823
2.84272,0.547596,0.132169
2.84656,0.440843,0.0538499
2.8341,0.544242,0.0261921
2.88066,0.232095,0.00383344
2.85926,0.335753,-0.0237168
2.86706,0.333676,-0.23548
2.87551,0.33293,-0.343278
2.85367,0.435316,-0.478043
2.8878,0.223187,-0.532741
2.87337,0.329938,-0.560205
2.85382,0.433962,-0.588497
2.86317,0.322058,0.292106
2.86795,0.321682,0.187232
2.84222,0.423698,0.158548
2.84308,0.529594,0.132033
2.84526,0.422781,0.0537751
2.83935,0.527207,0.0262103
2.87705,0.214044,0.00382681
2.86524,0.318644,-0.0237498
2.8775,0.31528,-0.343278
2.8672,0.312987,-0.449184
2.85727,0.417941,-0.478206
2.88029,0.204835,-0.531113
2.87534,0.312301,-0.560205
2.85836,0.416726,-0.588896
2.85041,0.304382,0.397164
2.86708,0.304694,0.292308
2.84378,0.40611,0.158493
2.84235,0.511432,0.13185
2.85176,0.405878,0.0538499
2.8445,0.510128,0.0262284
2.86813,0.301162,-0.023758
2.84749,0.402228,-0.156299
2.87391,0.298777,-0.235724
2.85145,0.400403,-0.36922
2.873,0.295793,-0.449799
2.85294,0.399444,-0.477063
2.8864,0.187477,-0.532018
2.8811,0.295053,-0.560966
2.85893,0.398909,-0.588497
2.86988,0.287195,0.292408
2.84528,0.389993,0.264041
2.8571,0.390139,0.159099
2.84642,0.494153,0.131896
2.85717,0.388777,0.053906
2.83772,0.49096,0.0261377
2.88544,0.179094,0.00383477
2.86794,0.283361,-0.0237415
2.85287,0.38515,-0.156462
2.87867,0.281428,-0.235968
2.8568,0.383295,-0.369602
2.87378,0.278064,-0.449645
2.85925,0.382454,-0.477716
2.89142,0.169994,-0.532741
2.8725,0.381369,-0.704026
2.84466,0.372139,0.263766
2.8634,0.373117,0.159319
2.84644,0.476184,0.131759
2.88531,0.16324,0.109504
2.85553,0.370723,0.0538312
2.8397,0.473375,0.0261286
2.88549,0.16133,0.00383344
2.86664,0.265482,-0.0237168
2.86008,0.365884,-0.369729
2.87641,0.260515,-0.449799
2.87035,0.366026,-0.479187
2.88451,0.259675,-0.560966
2.85875,0.363178,-0.587498
2.86707,0.362761,-0.702138
2.84834,0.460084,0.237262
2.87299,0.251029,0.187102
2.86465,0.355417,0.159264
2.84931,0.458709,0.131759
2.88327,0.145382,0.109391
2.86172,0.353686,0.053906
2.88942,0.143771,0.00383742
2.8722,0.248232,-0.0237498
2.8539,0.348674,-0.261606
2.84596,0.452108,-0.398016
2.88091,0.24311,-0.450261
2.86862,0.347932,-0.478533
2.88018,0.241479,-0.559825
2.86287,0.345865,-0.587897
2.86828,0.345046,-0.701901
2.84816,0.44214,0.237016
2.88113,0.128715,0.214875
2.87348,0.233315,0.187038
2.8638,0.337483,0.159099
2.85108,0.441065,0.131713
2.8841,0.127688,0.109391
2.87747,0.232476,0.0815446
2.85192,0.334721,0.0536817
2.88725,0.125909,0.00383344
2.87566,0.230764,-0.0237662
2.85452,0.331996,-0.156191
2.88137,0.228236,-0.235806
2.88826,0.225891,-0.451184
2.85992,0.329083,-0.476736
2.88552,0.224106,-0.560586
2.86591,0.328404,-0.588097
2.86937,0.32733,-0.701665
2.85122,0.321451,0.369651
2.84885,0.424362,0.236853
2.88685,0.111226,0.215247
2.87785,0.215903,0.187232
2.85986,0.31924,0.158768
2.85472,0.423709,0.131759
2.88983,0.110179,0.10958
2.87785,0.214742,0.0815164
2.86088,0.317989,0.0538125
2.84991,0.421317,0.0261468
2.88797,0.108191,0.00383344
2.87203,0.212745,-0.023725
2.85749,0.314584,-0.156245
2.86436,0.312962,-0.369475
2.88663,0.207951,-0.450722
2.86385,0.311743,-0.477063
2.89272,0.206816,-0.561727
2.87177,0.311235,-0.588896
2.88002,0.310655,-0.70379
2.85709,0.30437,0.370162
2.85041,0.406733,0.236771
2.88449,0.0934141,0.215024
2.87513,0.197967,0.186973
2.85779,0.301268,0.158548
2.86122,0.406747,0.131941
2.87811,0.197011,0.0814882
2.86476,0.300638,0.0538499
2.85442,0.404103,0.0261649
2.88958,0.0904995,0.00383477
2.88226,0.195729,-0.0237992
2.86099,0.298677,-0.0513151
2.84803,0.400917,-0.184175
2.86083,0.296187,-0.261697
2.87511,0.296296,-0.370619
2.85478,0.399784,-0.398153
2.88983,0.190365,-0.45103
2.87061,0.294668,-0.47788
2.89197,0.188935,-0.561346
2.87265,0.293509,-0.588697
2.85384,0.38937,0.236853
2.8753,0.180259,0.186908
2.86356,0.284121,0.158768
2.89396,0.0747858,0.109694
2.88126,0.179472,0.0815446
2.86954,0.283349,0.053906
2.85486,0.386313,0.0261468
2.89208,0.072818,0.00383742
2.86611,0.279979,-0.156516
2.85044,0.383434,-0.184175
2.86358,0.278724,-0.261787
2.87095,0.278075,-0.369856
2.86209,0.382916,-0.398837
2.87139,0.276954,-0.477716
2.87634,0.276064,-0.589096
2.87298,0.274274,-0.701193
2.87048,0.270216,0.37144
2.85519,0.371723,0.236771
2.87735,0.16267,0.186973
2.87221,0.267193,0.159154
2.89436,0.0570275,0.109694
2.8863,0.162014,0.0816576
2.86625,0.265276,0.0538125
2.86412,0.369685,0.0262103
2.88647,0.054957,0.00382946
2.88445,0.160344,-0.0237992
2.85137,0.367179,-0.0788977
2.86479,0.262115,-0.156353
2.87359,0.260544,-0.369983
2.85554,0.36422,-0.397605
2.87794,0.259774,-0.478533
2.86156,0.364785,-0.507407
2.89603,0.153536,-0.561727
2.87408,0.25806,-0.588297
2.88525,0.257591,-0.70379
2.8711,0.252511,0.371312
2.86146,0.356677,0.343543
2.88052,0.146031,0.292408
2.85642,0.354075,0.236689
2.89669,0.0404575,0.215841
2.8753,0.144861,0.186779
2.86882,0.249132,0.158878
2.89765,0.0393076,0.109807
2.88824,0.144351,0.0816858
2.87579,0.248372,0.053962
2.8584,0.351128,0.0261377
2.89376,0.0373352,0.00383875
2.87839,0.142297,-0.0237415
2.86535,0.244447,-0.156299
2.88304,0.243575,-0.371001
2.88538,0.242606,-0.479513
2.86765,0.347694,-0.5081
2.88733,0.241399,-0.590694
2.88775,0.239963,-0.704026
2.87457,0.235051,0.371568
2.85571,0.338179,0.342597
2.85359,0.335959,0.236279
2.89289,0.0226518,0.215544
2.87115,0.126995,0.186455
2.87229,0.231685,0.158989
2.88907,0.126626,0.0816858
2.86929,0.230082,0.0538125
2.89793,0.0196058,0.00384405
2.8832,0.124806,-0.0237745
2.8648,0.226704,-0.156191
2.8668,0.329754,-0.50758
2.89071,0.22383,-0.591094
2.89621,0.00682722,0.430208
2.85674,0.320539,0.342478
2.8941,0.00560994,0.322375
2.85164,0.318001,0.235951
2.89697,0.00490764,0.215841
2.87686,0.109566,0.186779
2.87664,0.21428,0.159154
2.8888,0.108859,0.0816576
2.87563,0.212841,0.053906
2.899,0.00182466,0.00384538
2.88991,0.107335,-0.0238239
2.85467,0.314304,-0.0788154
2.87411,0.209703,-0.156625
2.87254,0.20858,-0.262059
2.85836,0.312741,-0.289995
2.85979,0.311383,-0.397332
2.90122,0.101874,-0.452107
2.8911,0.207392,-0.480003
2.86877,0.312158,-0.50758
2.89105,0.206019,-0.590894
2.85964,0.303109,0.342597
2.89308,-0.0121438,0.322264
2.88172,0.0929532,0.292308
2.85849,0.30102,0.236361
2.89794,-0.0128723,0.215916
2.87947,0.0919752,0.186908
2.87093,0.196148,0.158768
2.87489,0.195058,0.0538686
2.90295,-0.0159853,0.00385068
2.89051,0.0896008,-0.0238239
2.85853,0.296989,-0.0788703
2.87634,0.19213,-0.156679
2.87476,0.191017,-0.26215
2.8622,0.295401,-0.290196
2.86953,0.294639,-0.398426
2.89586,0.0838985,-0.451184
2.87161,0.29465,-0.507754
2.89742,0.187139,-0.823566
2.88754,0.0786357,0.508352
2.85947,0.28536,0.34236
2.90289,-0.0299979,0.323371
2.8892,0.0754514,0.293014
2.86626,0.179624,0.264041
2.85929,0.283376,0.236279
2.89581,-0.0306324,0.215767
2.87999,0.0743053,0.186908
2.87108,0.178467,0.158713
2.87406,0.28332,0.13185
2.87803,0.177537,0.053906
2.85919,0.280191,0.0260742
2.89201,0.0718881,-0.0238321
2.85831,0.279249,-0.0788154
2.87248,0.174175,-0.156408
2.8719,0.173134,-0.261787
2.86297,0.277737,-0.290096
2.87128,0.277026,-0.398426
2.89929,0.0661959,-0.451646
2.87434,0.277119,-0.507927
2.91773,-0.0434954,-0.536721
2.90625,0.0647816,-0.563058
2.89629,0.170699,-0.591493
2.89568,0.169192,-0.704735
2.86612,0.268272,0.342952
2.90365,-0.0478255,0.323482
2.8916,0.0577619,0.293215
2.86532,0.161921,0.263858
2.86296,0.266011,0.236443
2.88737,0.05677,0.187361
2.87412,0.160959,0.158823
2.90549,-0.0497327,0.11011
2.86583,0.263099,0.0261195
2.8854,0.0540108,-0.0237745
2.9029,0.0513482,-0.236863
2.86462,0.260165,-0.290096
2.86701,0.258869,-0.397605
2.89147,0.153983,-0.479513
2.87991,0.259831,-0.50862
2.89142,0.152614,-0.590295
2.89472,0.15132,-0.704262
2.8816,0.14884,0.479441
2.87845,0.146663,0.371312
2.8687,0.250767,0.34307
2.89634,-0.0654838,0.322707
2.8919,0.0400183,0.293215
2.87223,0.144637,0.264407
2.86553,0.248525,0.236525
2.90818,-0.0664624,0.216733
2.89066,0.0390928,0.187556
2.87405,0.143271,0.158768
2.87533,0.247858,0.131759
2.90313,-0.067513,0.110035
2.8966,0.0380102,0.081827
2.88798,0.1426,0.0540555
2.86839,0.245595,0.0261286
2.88467,0.0362927,-0.0237662
2.86252,0.244237,-0.0788428
2.88736,0.139539,-0.157113
2.90416,0.0335469,-0.236944
2.86517,0.242499,-0.289995
2.89302,0.137434,-0.371383
2.87545,0.241853,-0.398563
2.8963,0.136425,-0.480167
2.88538,0.242485,-0.509313
2.90013,0.135235,-0.591893
2.87153,0.241018,-0.617293
2.87654,0.130887,0.478457
2.88127,0.129087,0.371568
2.86919,0.23308,0.342952
2.89308,0.0222808,0.293316
2.86809,0.126791,0.26395
2.86701,0.230938,0.236525
2.89384,0.0213775,0.18775
2.87987,0.125851,0.159044
2.8768,0.230211,0.131759
2.91065,-0.0855599,0.110337
2.8888,0.124877,0.0540555
2.87084,0.22807,0.0261377
2.89184,0.0186371,-0.0238239
2.86795,0.226984,-0.0789526
2.89315,0.12203,-0.157384
2.90431,0.0157266,-0.236944
2.87156,0.225304,-0.290497
2.89084,0.119557,-0.371001
2.87886,0.224359,-0.398837
2.89807,0.118691,-0.48033
2.88976,0.225006,-0.509833
2.91643,-0.0971939,-0.536721
2.87198,0.223319,-0.617084
2.87434,0.113118,0.477966
2.89732,0.00600177,0.401419
2.88598,0.111558,0.372079
2.87354,0.215694,0.343307
2.89516,0.00453191,0.293518
2.86837,0.213342,0.236525
2.89292,0.00361957,0.187685
2.88059,0.108178,0.159044
2.87816,0.212555,0.131759
2.87118,0.210377,0.0261286
2.8939,0.000893362,-0.0238404
2.87028,0.209455,-0.07898
2.88088,0.103809,-0.156679
2.86759,0.20785,-0.184111
2.87785,0.208038,-0.290999
2.8871,0.207187,-0.399794
2.8948,0.100769,-0.479677
2.88715,0.206989,-0.50914
2.91775,-0.115165,-0.537083
2.87622,0.205902,-0.617712
2.88199,0.206365,-0.73343
2.87103,0.0953486,0.47731
2.88938,-0.0117437,0.400321
2.87868,0.0935905,0.371057
2.88916,-0.0132052,0.292913
2.86664,0.195535,0.236279
2.89488,-0.0141408,0.187815
2.88319,0.0905639,0.159154
2.91238,-0.121397,0.110451
2.87043,0.192622,0.0261105
2.90285,-0.0169157,-0.0239145
2.87251,0.191906,-0.0790074
2.87946,0.0860703,-0.15657
2.87113,0.189851,-0.290196
2.89506,0.0841598,-0.371383
2.88436,0.189209,-0.399247
2.89438,0.0829769,-0.479513
2.88444,0.189012,-0.508447
2.92583,-0.133469,-0.538711
2.8919,0.189248,-0.735644
2.88142,0.0779974,0.478949
2.87033,0.181922,0.449458
2.89816,-0.0295633,0.401556
2.88019,0.0759517,0.371185
2.87696,0.180477,0.343425
2.89002,-0.0309432,0.293014
2.87972,0.178682,0.237262
2.89174,-0.0318702,0.18762
2.88369,0.0728712,0.159154
2.88454,0.177465,0.131941
2.89865,-0.0331101,0.0818835
2.87455,0.175189,0.0261377
2.90769,-0.0347868,-0.0239557
2.87164,0.174156,-0.0789526
2.88493,0.0685192,-0.156842
2.8759,0.173004,-0.184495
2.90346,0.0665763,-0.3724
2.8825,0.171331,-0.398837
2.89243,0.171718,-0.509659
2.92692,-0.15152,-0.539073
2.90567,0.0626187,-0.824385
2.87041,0.16425,0.449304
2.87801,0.162821,0.343425
2.88779,-0.0486419,0.292812
2.87778,0.160842,0.237016
2.8905,-0.0495959,0.187556
2.88009,0.0550995,0.158933
2.88258,0.159597,0.131804
2.90239,-0.0509655,0.0819964
2.87357,0.157438,0.0261195
2.87565,0.156696,-0.0790349
2.90027,0.0510801,-0.157656
2.87491,0.155247,-0.184367
2.88547,0.153746,-0.39911
2.91724,-0.0587134,-0.454416
2.90603,0.0476301,-0.48131
2.922,-0.169249,-0.538349
2.89595,0.153848,-0.736136
2.87038,0.146584,0.44915
2.87995,0.145208,0.343543
2.88942,-0.0664058,0.293014
2.87473,0.142984,0.236689
2.9177,-0.174292,0.217773
2.88137,0.0374395,0.158989
2.88251,0.141857,0.131759
2.91663,-0.175403,0.110716
2.90802,-0.0689154,0.0821658
2.89227,0.0362178,0.0540742
2.87748,0.139949,0.0261468
2.87955,0.139193,-0.0791172
2.90352,0.0333178,-0.157819
2.87781,0.137699,-0.184495
2.88689,0.0321191,-0.262693
2.88209,0.13735,-0.290999
2.88438,0.135945,-0.398837
2.92287,-0.187301,-0.538711
2.8892,0.135667,-0.619597
2.89393,0.13594,-0.735398
2.88307,0.129501,0.451002
2.88606,0.0229634,0.371823
2.88674,0.127798,0.344253
2.90686,-0.0846551,0.294829
2.87755,0.125429,0.236853
2.89665,-0.0852686,0.188009
2.88255,0.0197658,0.159044
2.88632,0.124297,0.131896
2.92049,-0.193627,0.110905
2.90455,-0.086668,0.0820811
2.89244,0.0184705,0.0540742
2.87629,0.122205,0.0261286
2.87836,0.121438,-0.0790623
2.90267,0.0154962,-0.157764
2.88358,0.120247,-0.184814
2.88089,0.11958,-0.290798
2.90915,0.0131443,-0.373036
2.88912,0.118407,-0.399384
2.92397,-0.201804,-0.427941
2.92123,-0.0946679,-0.455185
2.92952,-0.205783,-0.540158
2.92208,-0.0962779,-0.56629
2.91306,0.0106198,-0.59389
2.88802,0.117857,-0.619178
2.88696,0.117864,-0.73343
2.87492,0.111464,0.449613
2.88118,0.00524548,0.371185
2.88648,0.110045,0.344135
2.9033,-0.102384,0.294527
2.88125,0.107882,0.237098
2.89807,-0.103111,0.188138
2.8916,0.00208496,0.159539
2.88303,0.106437,0.131713
2.92224,-0.211759,0.111019
2.90896,-0.104668,0.0822223
2.89049,0.000722046,0.0540368
2.87998,0.104664,0.0261558
2.91396,-0.106427,-0.0240216
2.89273,-0.00230666,-0.157222
2.88058,0.101866,-0.290698
2.91017,-0.00470779,-0.373163
2.89772,0.100953,-0.400478
2.93155,-0.220409,-0.429241
2.9074,-0.00587041,-0.481474
2.92722,-0.22368,-0.539977
2.88967,0.100168,-0.619388
2.89635,0.10045,-0.735644
2.88114,0.0921417,0.343425
2.89864,-0.120032,0.294123
2.88584,0.0903257,0.237426
2.90636,-0.121266,0.188721
2.89456,-0.0156738,0.159705
2.87764,0.0885608,0.13144
2.92387,-0.229921,0.111133
2.90244,-0.0170843,0.0542611
2.89548,-0.01861,-0.051654
2.89166,-0.0200491,-0.157167
2.89397,-0.0210754,-0.263328
2.88214,0.0842184,-0.290798
2.90224,0.0832848,-0.401026
2.91985,-0.130509,-0.455185
2.90928,-0.0237258,-0.481801
2.91591,-0.0251541,-0.59449
2.89414,0.0825467,-0.620226
2.89788,0.0827041,-0.73589
2.89492,-0.0302566,0.372973
2.88165,0.0744616,0.343425
2.88136,0.0724915,0.237016
2.90356,-0.139002,0.188591
2.88642,-0.0333419,0.159264
2.87913,0.0709269,0.131485
2.92838,-0.248364,0.11136
2.91344,-0.140647,0.0823917
2.90228,-0.0348931,0.0542611
2.88205,0.0693379,0.0261649
2.89631,-0.0363885,-0.0516718
2.89248,-0.0378047,-0.157222
2.90075,-0.0389256,-0.263962
2.8836,0.0665553,-0.290898
2.89775,0.0653637,-0.400342
2.92097,-0.148523,-0.455493
2.91007,-0.0415905,-0.481964
2.90368,0.0652947,-0.510872
2.92373,-0.150249,-0.567051
2.91374,-0.0430164,-0.59409
2.89639,0.0648781,-0.735398
2.87253,0.0584469,0.448995
2.88801,0.0568961,0.344135
2.90166,-0.156761,0.188527
2.8885,0.0534258,0.131896
2.91352,-0.158575,0.0824199
2.90701,-0.0527913,0.0543546
2.87942,0.0515989,0.0261377
2.89203,-0.0540845,-0.0516005
2.89619,-0.0556287,-0.157439
2.88666,0.0494608,-0.184878
2.89548,-0.0566262,-0.263509
2.88495,0.0488775,-0.290999
2.90205,0.0476473,-0.400889
2.92494,-0.166724,-0.456262
2.9068,-0.0593851,-0.481474
2.90402,0.0474769,-0.510872
2.91981,-0.168017,-0.56648
2.90643,0.0472625,-0.737859
2.8758,0.0408624,0.449458
2.88533,0.0391341,0.34378
2.87904,0.0370888,0.236771
2.90064,-0.174562,0.188527
2.88777,0.035689,0.13185
2.91349,-0.176509,0.0824482
2.90963,-0.0707002,0.0544106
2.88168,0.0339537,0.0261558
2.89765,-0.0719777,-0.0517075
2.88572,0.033145,-0.0791995
2.90877,-0.0737272,-0.158144
2.8909,0.0317916,-0.185134
2.89707,-0.0744426,-0.26369
2.89017,0.0312286,-0.2915
2.90824,0.0299009,-0.40171
2.93905,-0.293664,-0.431264
2.92386,-0.184668,-0.456262
2.90835,-0.0772721,-0.481801
2.90722,0.0296874,-0.511392
2.91579,-0.185742,-0.56591
2.90957,0.0294575,-0.738597
2.88154,0.0213998,0.343307
2.88221,0.0194428,0.237016
2.88894,0.0179755,0.131896
2.92233,-0.195049,0.0827305
2.90814,-0.0885216,0.0543919
2.88384,0.0162827,0.026174
2.90851,-0.0925976,-0.264778
2.90836,0.0120557,-0.40171
2.93621,-0.311587,-0.43112
2.91774,-0.202263,-0.455493
2.9167,-0.0954063,-0.483271
2.90242,0.0118284,-0.510525
2.91753,-0.203835,-0.56648
2.92323,-0.096999,-0.596287
2.89529,0.0114962,-0.620226
2.91454,0.0116235,-0.739827
2.88127,0.00175693,0.236935
2.89371,-0.104492,0.15976
2.89998,0.000249908,0.132397
2.92407,-0.213194,0.0828152
2.90355,-0.106218,0.0543172
2.88488,-0.00141297,0.0261831
2.88991,-0.00227288,-0.0793092
2.9039,-0.110291,-0.264415
2.89332,-0.00424499,-0.291801
2.92091,-0.112315,-0.374817
2.93719,-0.329929,-0.431553
2.92039,-0.22046,-0.456108
2.92098,-0.113493,-0.484088
2.90736,-0.00599086,-0.511392
2.9216,-0.114895,-0.596088
2.90487,-0.00623922,-0.737367
2.8892,-0.0159663,0.23759
2.90299,-0.122667,0.160311
2.90392,-0.0175682,0.13258
2.91483,-0.124544,0.0545415
2.90282,-0.125604,-0.0518323
2.89184,-0.0200188,-0.0793641
2.90317,-0.128107,-0.264415
2.9002,-0.0220509,-0.292504
2.92016,-0.130236,-0.374817
2.93314,-0.347712,-0.431264
2.9239,-0.238777,-0.456878
2.91629,-0.131236,-0.483434
2.9053,-0.0238138,-0.511045
2.92573,-0.133042,-0.597086
2.90962,-0.0241032,-0.738597
2.88805,-0.0336822,0.237508
2.90019,-0.140381,0.160201
2.90376,-0.035386,0.13258
2.91601,-0.142524,0.0545789
2.94094,-0.360852,0.00393027
2.90599,-0.143611,-0.0519037
2.89566,-0.0378147,-0.0794738
2.90929,-0.146268,-0.265049
2.91195,-0.0400099,-0.293708
2.92525,-0.148453,-0.37558
2.89918,-0.0413527,-0.400478
2.92238,-0.256713,-0.456878
2.9243,-0.149581,-0.484905
2.90707,-0.0416682,-0.511392
2.91508,-0.150486,-0.595089
2.89178,-0.0514733,0.237836
2.90027,-0.158228,0.160256
2.90549,-0.0532391,0.132671
2.9306,-0.267982,0.0831258
2.91508,-0.160414,0.0545789
2.90236,-0.0548541,0.0263464
2.93867,-0.37889,0.00393027
2.91005,-0.161716,-0.0519929
2.90237,-0.0557157,-0.0796658
2.9171,-0.163589,-0.158796
2.90834,-0.164116,-0.265049
2.9058,-0.0592824,-0.401436
2.92469,-0.27501,-0.457493
2.91545,-0.16707,-0.483598
2.91267,-0.0596258,-0.512431
2.91605,-0.168483,-0.595488
2.89241,-0.0692398,0.237918
2.89711,-0.0708704,0.132306
2.91903,-0.178603,0.0546723
2.91199,-0.179754,-0.0520464
2.90298,-0.0735486,-0.0796933
2.92203,-0.181858,-0.159121
2.90827,-0.182021,-0.26514
2.90925,-0.0756892,-0.293507
2.91331,-0.0773212,-0.402531
2.92589,-0.293246,-0.457955
2.92618,-0.185705,-0.485558
2.91028,-0.0774441,-0.512085
2.90089,-0.0872557,0.238656
2.90608,-0.19434,0.160696
2.89962,-0.0887371,0.132443
2.92908,-0.304131,0.0831823
2.91189,-0.196107,0.0545602
2.91246,-0.0908092,0.0264463
2.93496,-0.306347,-0.0243099
2.91383,-0.197821,-0.0520999
2.89947,-0.0912652,-0.079611
2.91986,-0.199715,-0.159067
2.90973,-0.0935706,-0.293608
2.92994,-0.20282,-0.376597
2.91773,-0.0953572,-0.403215
2.92499,-0.203656,-0.485558
2.90778,-0.0952352,-0.511738
2.89532,-0.104873,0.238246
2.90501,-0.106747,0.132717
2.91861,-0.214557,0.0547097
2.91185,-0.108678,0.0264463
2.93401,-0.324459,-0.0243182
2.91555,-0.215918,-0.0521534
2.90885,-0.10943,-0.0798853
2.92455,-0.218073,-0.159393
2.91192,-0.110971,-0.186603
2.94189,-0.328397,-0.241497
2.91308,-0.111575,-0.294009
2.90323,-0.11272,-0.401299
2.92663,-0.221824,-0.486048
2.91304,-0.113305,-0.512778
2.89662,-0.122721,0.23841
2.90929,-0.124784,0.132945
2.92322,-0.232938,0.0548218
2.91213,-0.126586,0.0264553
2.93495,-0.342804,-0.0243429
2.91212,-0.127451,-0.079995
2.92714,-0.236335,-0.15961
2.91417,-0.128968,-0.186795
2.92428,-0.237131,-0.266952
2.91035,-0.129359,-0.293808
2.9302,-0.239001,-0.376979
2.90743,-0.130754,-0.401984
2.9321,-0.240341,-0.487192
2.90639,-0.130911,-0.511738
2.91645,-0.143024,0.133309
2.92074,-0.250784,0.0548032
2.9113,-0.144452,0.0264553
2.93477,-0.36105,-0.0243594
2.91228,-0.145367,-0.0800225
2.91967,-0.253772,-0.159284
2.91432,-0.146897,-0.186859
2.92575,-0.25533,-0.267224
2.91447,-0.147465,-0.29431
2.94614,-0.476146,-0.324839
2.93263,-0.257323,-0.377487
2.91746,-0.149148,-0.403489
2.92762,-0.258068,-0.486702
2.91635,-0.149296,-0.513644
2.91752,-0.161027,0.133401
2.92014,-0.268792,0.0548218
2.91934,-0.162814,0.026537
2.93647,-0.379564,-0.0243923
2.92004,-0.270377,-0.0523139
2.90933,-0.163122,-0.0799676
2.95328,-0.492945,-0.1055
2.91905,-0.271775,-0.159338
2.91337,-0.164776,-0.186859
2.91917,-0.272814,-0.266771
2.91947,-0.165684,-0.294912
2.94905,-0.495202,-0.325488
2.91945,-0.167216,-0.403899
2.93286,-0.276675,-0.487846
2.91833,-0.167356,-0.514163
2.90949,-0.178497,0.133081
2.92341,-0.287194,0.0549153
2.92029,-0.180847,0.0265552
2.9321,-0.397306,-0.0243758
2.91534,-0.287994,-0.0522604
2.91426,-0.181343,-0.0801322
2.92826,-0.290766,-0.159935
2.91131,-0.182587,-0.186795
2.92041,-0.291016,-0.267043
2.9184,-0.183594,-0.294912
2.91442,-0.184876,-0.403352
2.91921,-0.185385,-0.51451
2.90735,-0.196279,0.133036
2.92756,-0.305749,0.0550275
2.91912,-0.198763,0.0265552
2.92008,-0.199698,-0.0803242
2.9284,-0.308937,-0.160044
2.92055,-0.30914,-0.267224
2.91521,-0.202892,-0.403625
2.92097,-0.203498,-0.51503
2.90808,-0.214261,0.133127
2.92663,-0.323817,0.0550461
2.9168,-0.217463,-0.0802694
2.93935,-0.328341,-0.160749
2.91084,-0.218449,-0.186923
2.91592,-0.219393,-0.294912
2.94317,-0.331212,-0.379777
2.92576,-0.221674,-0.405267
2.9285,-0.222088,-0.516589
2.91567,-0.232816,0.133538
2.92856,-0.342232,0.0551209
2.91746,-0.23465,0.0265642
2.92139,-0.235839,-0.0804339
2.91441,-0.236709,-0.187242
2.92632,-0.239784,-0.405541
2.92611,-0.239972,-0.516415
2.91817,-0.251045,0.13372
2.91596,-0.252547,0.0265642
2.92384,-0.255543,-0.187945
2.92193,-0.255941,-0.295815
2.94479,-0.368043,-0.38054
2.92578,-0.257822,-0.405678
2.9283,-0.271727,0.0266913
2.94073,-0.383422,-0.161183
2.91924,-0.273199,-0.187754
2.9312,-0.274887,-0.296919
2.94445,-0.386363,-0.380794
2.91762,-0.288803,0.0266096
2.92551,-0.290461,-0.0806809
2.94988,-0.512134,-0.133967
2.94426,-0.40227,-0.161509
2.91751,-0.291106,-0.187754
2.93045,-0.292966,-0.297019
2.94988,-0.405503,-0.381812
2.94112,-0.295588,-0.408277
2.92077,-0.307223,0.026655
2.92566,-0.308616,-0.0807357
2.94668,-0.421034,-0.16178
2.93925,-0.313629,-0.408277
2.91783,-0.325028,0.0266459
2.92769,-0.327005,-0.0808454
2.94207,-0.438812,-0.161672
2.93058,-0.328778,-0.18884
2.96267,-0.553816,-0.245888
2.93158,-0.329461,-0.297521
2.93432,-0.331325,-0.407867
2.92174,-0.343626,0.0267004
2.93555,-0.346134,-0.0811198
2.9403,-0.457009,-0.161726
2.93346,-0.34734,-0.18916
2.93543,-0.348146,-0.298123
2.93321,-0.34944,-0.408004
2.93238,-0.364016,-0.0810923
2.94336,-0.475999,-0.162052
2.93325,-0.36558,-0.189287
2.93028,-0.365781,-0.297822
2.93009,-0.382002,-0.0810923
2.94629,-0.495042,-0.162377
2.93392,-0.38396,-0.189479
2.93488,-0.384659,-0.298524
2.93066,-0.40038,-0.0811746
2.94418,-0.513283,-0.162432
2.93744,-0.402768,-0.189863
2.93543,-0.403066,-0.298826
2.93706,-0.419627,-0.0814215
2.94084,-0.421634,-0.190246
2.93585,-0.421494,-0.299127
2.93344,-0.437493,-0.0813941
2.94708,-0.441,-0.190821
2.93911,-0.440384,-0.299729
2.93643,-0.457845,-0.19031
2.93734,-0.458564,-0.299829
2.93847,-0.495172,-0.190821
2.94225,-0.514395,-0.191269
