2.46045,0.614488,-0.276038
2.50147,0.657383,-0.211005
2.49773,0.640043,-0.210355
2.50451,0.625429,-0.210599
2.42085,0.508927,-0.361193
2.5054,0.609343,-0.210355
2.42684,0.494656,-0.361626
2.50424,0.592811,-0.209948
2.42886,0.479564,-0.361482
2.52036,0.678702,-0.141863
2.50589,0.576987,-0.209786
2.4828,0.476248,-0.275172
2.42981,0.464281,-0.361193
2.52352,0.662971,-0.141809
2.50744,0.561165,-0.209623
2.47084,0.648209,-0.232428
2.4847,0.460824,-0.275064
2.4297,0.448824,-0.360759
2.38744,0.438002,-0.446453
2.53624,0.649704,-0.142297
2.47187,0.632295,-0.232156
2.43533,0.434428,-0.361193
2.38427,0.422315,-0.445368
2.53049,0.631711,-0.141755
2.47377,0.616635,-0.231975
2.43697,0.419309,-0.361048
2.38876,0.408009,-0.44573
2.51539,0.514517,-0.20946
2.48884,0.414357,-0.274631
2.43657,0.403863,-0.360615
2.39121,0.393344,-0.44573
2.53125,0.599001,-0.141375
2.53983,0.407937,-0.184661
2.51165,0.497717,-0.208891
2.439,0.388905,-0.360615
2.39455,0.378818,-0.445911
2.54072,0.584802,-0.1417
2.50479,0.673225,-0.16609
2.51466,0.482296,-0.208891
2.44428,0.374381,-0.361048
2.41191,0.460102,-0.382398
2.39392,0.363675,-0.445368
2.54426,0.569202,-0.1417
2.50695,0.657337,-0.165962
2.51953,0.467221,-0.209054
2.48136,0.55422,-0.231341
2.49506,0.36833,-0.274523
2.43581,0.542842,-0.319999
2.44653,0.359377,-0.361048
2.41566,0.445473,-0.382552
2.39902,0.349405,-0.445911
2.5438,0.552732,-0.141483
2.51963,0.644167,-0.166537
2.52039,0.451401,-0.208891
2.46879,0.630665,-0.256982
2.49137,0.352179,-0.273873
2.44673,0.344083,-0.360759
2.41835,0.430642,-0.382552
2.40599,0.335357,-0.446815
2.376,0.421776,-0.467408
2.69087,0.369007,0.102916
2.58153,0.545728,-0.04707
2.5491,0.537525,-0.141592
2.51967,0.62773,-0.166282
2.50936,0.433552,-0.207753
2.47358,0.615745,-0.257082
2.49348,0.336886,-0.273873
2.43841,0.512095,-0.319491
2.44977,0.329195,-0.360904
2.41997,0.415628,-0.382398
2.408,0.320588,-0.446815
2.69209,0.352359,0.102878
2.58581,0.530079,-0.0470879
2.54746,0.520874,-0.14132
2.51765,0.610846,-0.165898
2.51099,0.417983,-0.207672
2.47441,0.599852,-0.256781
2.49255,0.321199,-0.273549
2.44248,0.497321,-0.319618
2.45469,0.314535,-0.361337
2.4176,0.399965,-0.381629
2.4109,0.30593,-0.446996
2.37519,0.391629,-0.466267
2.58901,0.514203,-0.0470879
2.54473,0.504069,-0.140995
2.52426,0.596074,-0.16609
2.52532,0.404459,-0.208647
2.47224,0.583288,-0.256179
2.50039,0.306625,-0.274198
2.45327,0.483861,-0.320635
2.42489,0.3859,-0.382398
2.40159,0.472667,-0.40534
2.3824,0.377817,-0.467218
2.58819,0.497552,-0.0470165
2.55464,0.489761,-0.141375
2.5269,0.580351,-0.166026
2.51002,0.386228,-0.207184
2.47674,0.56833,-0.256279
2.4963,0.290587,-0.273549
2.45229,0.468055,-0.320127
2.43307,0.37191,-0.383322
2.40832,0.458661,-0.405993
2.41056,0.275875,-0.446272
2.38758,0.363635,-0.467788
2.66937,0.398283,0.0762363
2.59021,0.481479,-0.0469987
2.54679,0.472075,-0.140778
2.52749,0.564183,-0.165834
2.52122,0.37213,-0.207916
2.47824,0.552689,-0.256079
2.50397,0.275918,-0.274198
2.45122,0.452279,-0.319618
2.42126,0.538651,-0.342603
2.42651,0.355684,-0.381937
2.40818,0.443339,-0.405503
2.40732,0.260549,-0.445368
2.38685,0.348553,-0.467218
2.67968,0.383028,0.0764622
2.5941,0.465753,-0.0470165
2.54669,0.455911,-0.140615
2.52603,0.547607,-0.165515
2.52049,0.356234,-0.207672
2.48061,0.537262,-0.255978
2.45297,0.437056,-0.319491
2.46069,0.254097,-0.361193
2.43451,0.341613,-0.38286
2.40794,0.428037,-0.405013
2.40986,0.245873,-0.445549
2.38409,0.333221,-0.466267
2.60184,0.450681,-0.0471057
2.54846,0.440107,-0.140561
2.5313,0.532508,-0.165642
2.52559,0.341162,-0.207916
2.48094,0.521417,-0.255677
2.45854,0.422501,-0.319872
2.42769,0.508898,-0.342603
2.45629,0.23842,-0.360326
2.43657,0.326668,-0.38286
2.41344,0.413754,-0.405503
2.41523,0.231457,-0.446272
2.38803,0.318846,-0.466648
2.36629,0.404523,-0.489415
2.70622,0.253311,0.102992
2.64569,0.443046,0.050149
2.60455,0.434708,-0.0471057
2.58184,0.334292,-0.116489
2.54816,0.42397,-0.140398
2.52669,0.515371,-0.165131
2.52863,0.325787,-0.207997
2.47922,0.505191,-0.255176
2.45815,0.406922,-0.319491
2.43756,0.495373,-0.34356
2.45771,0.223344,-0.360326
2.43754,0.311586,-0.382706
2.40912,0.397812,-0.40436
2.41759,0.216721,-0.446453
2.39579,0.304931,-0.467788
2.37066,0.390314,-0.489815
2.75871,0.242274,0.206331
2.70673,0.236615,0.102954
2.6843,0.333392,0.0764057
2.65132,0.427281,0.0502051
2.60223,0.417926,-0.0470165
2.5887,0.512809,-0.0724235
2.58484,0.318566,-0.116534
2.54184,0.406906,-0.139909
2.53355,0.310629,-0.208241
2.47934,0.489391,-0.254875
2.46158,0.391987,-0.319618
2.43375,0.479068,-0.342603
2.46495,0.208761,-0.361193
2.44235,0.296982,-0.383168
2.41541,0.383642,-0.405013
2.41397,0.201474,-0.445549
2.39176,0.289517,-0.466648
2.37011,0.375301,-0.489215
2.70813,0.220002,0.102954
2.68629,0.316916,0.0764057
2.6618,0.412229,0.0503546
2.60475,0.401951,-0.0470165
2.57806,0.49428,-0.0720394
2.54725,0.391757,-0.140072
2.53739,0.295308,-0.208403
2.4823,0.474169,-0.254875
2.45707,0.375826,-0.318728
2.44151,0.465053,-0.343287
2.46421,0.193478,-0.360904
2.44315,0.281877,-0.383014
2.41675,0.368665,-0.40485
2.39649,0.456305,-0.429105
2.42007,0.187037,-0.446453
2.39057,0.2745,-0.466077
2.37915,0.361782,-0.490614
2.76545,0.208703,0.206628
2.71142,0.203531,0.10303
2.66131,0.395448,0.0502985
2.60717,0.385961,-0.0470165
2.57907,0.478088,-0.0719845
2.55454,0.376849,-0.140344
2.52496,0.46678,-0.164428
2.53915,0.279733,-0.208403
2.48516,0.458929,-0.254875
2.51342,0.183639,-0.274306
2.46228,0.361174,-0.319109
2.44724,0.450601,-0.343697
2.46535,0.178354,-0.360904
2.44385,0.266774,-0.38286
2.42092,0.354115,-0.405176
2.40022,0.44177,-0.429278
2.39026,0.259615,-0.465697
2.38229,0.347319,-0.490813
2.76568,0.191661,0.206554
2.71262,0.18689,0.10303
2.63978,0.473413,0.0243407
2.66181,0.181616,0.00353897
2.61048,0.370097,-0.0470344
2.5918,0.464015,-0.0722589
2.55681,0.361167,-0.140344
2.52679,0.451103,-0.164364
2.54082,0.264148,-0.208403
2.48401,0.442973,-0.254473
2.51648,0.168347,-0.274523
2.46739,0.346473,-0.319491
2.43923,0.433669,-0.342192
2.46837,0.163354,-0.361193
2.44544,0.251773,-0.38286
2.42011,0.338843,-0.404686
2.399,0.426345,-0.428585
2.39669,0.245444,-0.466648
2.38341,0.332559,-0.490614
2.76581,0.174625,0.20648
2.60576,0.353132,-0.0469095
2.55403,0.344804,-0.140072
2.52754,0.435251,-0.164237
2.50693,0.337555,-0.230163
2.48668,0.427723,-0.254473
2.51746,0.152903,-0.274523
2.46652,0.330931,-0.319109
2.43794,0.418025,-0.341645
2.47031,0.148265,-0.361337
2.44595,0.236669,-0.382706
2.42997,0.325034,-0.405993
2.39963,0.411284,-0.428239
2.40108,0.231015,-0.467218
2.3854,0.317929,-0.490614
2.34269,0.311029,-0.574176
2.72634,0.25508,0.17765
2.7177,0.153757,0.103143
2.61383,0.337906,-0.0470165
2.5973,0.432175,-0.0722589
2.55312,0.328744,-0.139909
2.54387,0.232948,-0.208403
2.4873,0.412132,-0.254273
2.46752,0.315665,-0.318982
2.44925,0.404511,-0.342876
2.47019,0.133051,-0.361193
2.44736,0.221656,-0.382706
2.43192,0.310118,-0.405993
2.40308,0.396713,-0.428412
2.42687,0.127745,-0.446996
2.39561,0.215662,-0.465887
2.38828,0.30341,-0.490813
2.34456,0.296649,-0.574176
2.77073,0.140823,0.206702
2.73282,0.238781,0.177974
2.6722,0.330262,0.0503359
2.66171,0.132441,0.00353499
2.61387,0.321617,-0.0469809
2.59282,0.223038,-0.116445
2.56401,0.314165,-0.140398
2.53171,0.404044,-0.164173
2.54326,0.217166,-0.208241
2.49174,0.397176,-0.254473
2.46843,0.300399,-0.318855
2.44973,0.389164,-0.342603
2.44671,0.206469,-0.382398
2.40839,0.382424,-0.428931
2.42565,0.11276,-0.446634
2.40276,0.201451,-0.467028
2.38913,0.288632,-0.490614
2.34054,0.281561,-0.572759
2.76955,0.12373,0.206554
2.73225,0.221847,0.177844
2.72038,0.120439,0.103181
2.66047,0.116019,0.00353234
2.62274,0.306385,-0.0471057
2.55796,0.297504,-0.139964
2.49512,0.38203,-0.254574
2.46037,0.284109,-0.317583
2.45305,0.374275,-0.34274
2.44891,0.191529,-0.382552
2.40777,0.367194,-0.428412
2.40493,0.18678,-0.467218
2.38891,0.273744,-0.490214
2.35574,0.359006,-0.510466
2.3374,0.266644,-0.571579
2.77026,0.106734,0.206554
2.73156,0.204929,0.177715
2.71002,0.302514,0.15045
2.71907,0.103669,0.103105
2.66313,0.0997674,0.00353499
2.61762,0.289517,-0.0469809
2.60086,0.383711,-0.0721491
2.56867,0.282787,-0.140452
2.54474,0.185867,-0.208159
2.49249,0.36599,-0.254072
2.47686,0.270623,-0.319491
2.45138,0.358642,-0.342192
2.45004,0.1765,-0.382552
2.43721,0.265301,-0.405993
2.41388,0.352983,-0.429105
2.42783,0.0830185,-0.446815
2.40994,0.1723,-0.467979
2.38957,0.258975,-0.490014
2.35403,0.343979,-0.509628
2.33803,0.252192,-0.571343
2.77086,0.0897344,0.206554
2.73675,0.188439,0.177974
2.7158,0.286299,0.15067
2.72066,0.0870151,0.103143
2.66669,0.0835188,0.00353897
2.64881,0.179875,-0.0218715
2.61736,0.273242,-0.0469452
2.60019,0.367325,-0.0720668
2.56241,0.266195,-0.140018
2.54959,0.358906,-0.164876
2.54882,0.170449,-0.208403
2.49075,0.350135,-0.253671
2.48045,0.255624,-0.319745
2.45844,0.344281,-0.342876
2.47865,0.0725632,-0.36206
2.45305,0.161593,-0.38286
2.416,0.338165,-0.429105
2.43419,0.0682855,-0.4479
2.40802,0.157318,-0.467408
2.36384,0.330612,-0.511304
2.34533,0.238432,-0.572759
2.82553,0.0748434,0.314847
2.77435,0.0728095,0.206777
2.74184,0.171893,0.178233
2.72048,0.269925,0.150835
2.72214,0.0703457,0.103181
2.66715,0.0671547,0.00353897
2.61898,0.257177,-0.0469452
2.6024,0.351364,-0.0720668
2.54976,0.342989,-0.164748
2.54982,0.154806,-0.208403
2.49778,0.335508,-0.254172
2.48098,0.240304,-0.319618
2.45756,0.328796,-0.342466
2.45399,0.146538,-0.38286
2.4158,0.142946,-0.468739
2.39061,0.229445,-0.489615
2.36583,0.316102,-0.511304
2.82991,0.0575858,0.31529
2.77475,0.055785,0.206777
2.74384,0.155122,0.178298
2.72209,0.253227,0.150835
2.69957,0.350026,0.124279
2.72352,0.0536613,0.103219
2.66651,0.050769,0.00353764
2.64583,0.147079,-0.0218303
2.62151,0.241194,-0.046963
2.54786,0.326829,-0.164492
2.51316,0.229058,-0.229619
2.50078,0.320302,-0.254273
2.47549,0.224449,-0.318728
2.45757,0.31346,-0.342192
2.45485,0.131478,-0.38286
2.41565,0.128068,-0.468549
2.38807,0.214422,-0.488816
2.37548,0.302568,-0.51298
2.82822,0.0401924,0.315069
2.80003,0.141951,0.284238
2.76806,0.0386609,0.206257
2.74275,0.138183,0.178168
2.7216,0.236347,0.150725
2.7086,0.334311,0.124599
2.72679,0.0369898,0.103332
2.6589,0.326622,0.0243135
2.66578,0.0343938,0.00353632
2.64868,0.130941,-0.0218468
2.62991,0.225703,-0.0470879
2.60552,0.31928,-0.0720394
2.55081,0.311311,-0.164556
2.55352,0.123601,-0.208566
2.51352,0.213549,-0.229528
2.49677,0.304229,-0.253671
2.47979,0.209506,-0.319109
2.46535,0.29909,-0.343013
2.45561,0.116413,-0.38286
2.44299,0.205409,-0.405993
2.43799,0.0234968,-0.448443
2.41345,0.113106,-0.467979
2.39325,0.200091,-0.489615
2.36661,0.286693,-0.510676
2.35223,0.195463,-0.573467
2.31511,0.280495,-0.59196
2.82941,0.0228461,0.315179
2.79986,0.124723,0.284138
2.77223,0.021707,0.206554
2.74753,0.121527,0.178427
2.72798,0.220045,0.151001
2.70961,0.317569,0.124553
2.68092,0.214978,0.0502798
2.67594,0.0181039,0.00354958
2.64443,0.11447,-0.0218056
2.62028,0.208689,-0.0468917
2.60346,0.302825,-0.0719297
2.55763,0.296227,-0.164876
2.55224,0.107846,-0.208403
2.49365,0.288332,-0.253169
2.48004,0.194209,-0.318982
2.45628,0.101343,-0.38286
2.42357,0.278772,-0.429105
2.41998,0.0985344,-0.46912
2.82353,0.00547316,0.314515
2.80653,0.10777,0.284743
2.76932,0.0046914,0.206331
2.72728,0.203154,0.15089
2.70952,0.300717,0.124462
2.73204,0.00353153,0.103522
2.709,0.102083,0.0765752
2.676,0.0016843,0.00354958
2.65008,0.0984275,-0.0218468
2.6255,0.1929,-0.046963
2.60924,0.287283,-0.0720394
2.56837,0.187395,-0.139964
2.54551,0.279006,-0.163981
2.55484,0.0922558,-0.208566
2.52092,0.183049,-0.229981
2.50032,0.273567,-0.253671
2.48514,0.179273,-0.319491
2.46588,0.268492,-0.342603
2.45784,0.0863048,-0.383014
2.43908,-0.00642541,-0.448624
2.41662,0.0835481,-0.468359
2.39552,0.170707,-0.489615
2.38065,0.258792,-0.51298
2.81112,0.0906759,0.285146
2.74283,0.0876106,0.178039
2.72549,0.186212,0.150725
2.7143,0.284398,0.124599
2.73001,-0.0132223,0.103446
2.66248,0.277418,0.0242953
2.67796,-0.0147464,0.00355223
2.65064,0.0821651,-0.0218468
2.63063,0.177055,-0.0470344
2.60102,0.270234,-0.0717651
2.57446,0.171965,-0.140235
2.55015,0.26369,-0.164173
2.55636,0.0766077,-0.208647
2.52299,0.167643,-0.230072
2.50492,0.258527,-0.253972
2.49213,0.164413,-0.320254
2.46452,0.253053,-0.342192
2.46425,0.0713938,-0.383937
2.42583,0.248909,-0.428931
2.44194,-0.0214171,-0.449167
2.42101,0.0688301,-0.46912
2.40239,0.156387,-0.490813
2.36468,0.242385,-0.509209
2.32856,0.238723,-0.594174
2.82935,-0.029238,0.315179
2.80566,0.0732696,0.284541
2.7493,0.0709337,0.178427
2.72957,0.169671,0.15089
2.73387,-0.030017,0.103598
2.70605,0.0687307,0.0764622
2.66214,0.260881,0.0242772
2.65009,0.0658747,-0.0218386
2.63266,0.160972,-0.0470522
2.6066,0.254658,-0.0718748
2.56948,0.155803,-0.139909
2.55272,0.248134,-0.164237
2.55678,0.0609208,-0.208647
2.52099,0.151979,-0.2298
2.50547,0.243056,-0.253871
2.468,0.238117,-0.342466
2.44237,0.145101,-0.405176
2.44176,-0.0364001,-0.449167
2.40429,0.141701,-0.491013
2.37196,0.228433,-0.510466
2.32998,0.224431,-0.594174
2.27792,0.219456,-0.675225
2.8321,-0.0466471,0.315511
2.73056,0.152919,0.15089
2.73663,-0.0468425,0.103711
2.71042,0.0522024,0.0765752
2.65744,0.0497438,-0.0218962
2.6336,0.144815,-0.0470522
2.60613,0.238477,-0.0718199
2.57936,0.140523,-0.140398
2.55618,0.232647,-0.164364
2.5571,0.0452315,-0.208647
2.52187,0.136508,-0.2298
2.50691,0.227678,-0.253871
2.47139,0.223147,-0.34274
2.44716,0.130322,-0.40583
2.43363,-0.0512163,-0.44772
2.38209,0.214665,-0.512351
2.33614,0.210566,-0.595404
2.87326,0.0412149,0.398125
2.83474,-0.064091,0.315843
2.72945,0.136062,0.15078
2.71907,0.234389,0.124599
2.72331,-0.0633312,0.103219
2.71368,0.0356099,0.0766599
2.66514,0.228193,0.0242772
2.6607,0.0334748,-0.0219209
2.63544,0.128701,-0.04707
2.60953,0.222652,-0.0718748
2.58317,0.124838,-0.140561
2.50925,0.212376,-0.253972
2.45185,0.11549,-0.406484
2.43327,-0.0661478,-0.44772
2.37459,0.199308,-0.510466
2.34029,0.196471,-0.596143
2.88435,0.0236736,0.399634
2.80454,0.0215989,0.284339
2.73124,0.119356,0.150835
2.72046,0.2177,0.124599
2.72886,-0.0802161,0.103446
2.71585,0.0189724,0.0767163
2.66848,0.211994,0.0242953
2.63019,0.112272,-0.046963
2.61783,0.207188,-0.0720668
2.59087,0.10928,-0.140941
2.55188,0.200714,-0.163917
2.56345,0.0138809,-0.209135
2.52535,0.105634,-0.229981
2.51051,0.196975,-0.253972
2.53875,-0.0796836,-0.27647
2.4702,0.0109185,-0.384707
2.43773,-0.0812406,-0.448624
2.34241,0.182182,-0.596389
2.77296,0.206246,0.228657
2.72992,0.10252,0.150725
2.72175,0.201004,0.124599
2.73131,-0.0970651,0.10356
2.71891,0.00231042,0.076801
2.66591,0.00082298,-0.0219621
2.63182,0.0961683,-0.0469809
2.61606,0.190903,-0.0719845
2.57952,0.0929496,-0.140289
2.56003,0.185557,-0.164364
2.52595,0.0901366,-0.229981
2.51167,0.181567,-0.253972
2.5402,-0.0953341,-0.276687
2.49898,0.087995,-0.320635
2.44717,0.0851871,-0.405503
2.44014,-0.0963131,-0.449167
2.42983,-0.00548397,-0.470641
2.37393,0.169944,-0.509838
2.34542,0.167945,-0.596881
2.77317,0.189159,0.228575
2.73549,0.0859244,0.151001
2.71894,0.18403,0.124416
2.72867,-0.113739,0.103484
2.71788,-0.0143673,0.0767728
2.69124,0.0832651,0.0503359
2.66789,0.179031,0.0242681
2.66686,-0.0155406,-0.0219704
2.62437,0.0797749,-0.0468382
2.61518,0.174715,-0.0719297
2.57704,0.0770307,-0.140126
2.5661,0.170176,-0.164684
2.53542,0.0749006,-0.230797
2.51373,0.166218,-0.254072
2.53957,-0.110919,-0.276687
2.49551,0.0725446,-0.320127
2.47509,-0.0194343,-0.385476
2.44245,-0.111418,-0.449709
2.38956,0.156332,-0.51298
2.8843,-0.0294219,0.399634
2.81043,-0.030091,0.284944
2.78025,0.17251,0.229067
2.72898,0.0689616,0.150615
2.728,0.167834,0.124781
2.72692,-0.130432,0.103446
2.6937,0.0668,0.0503733
2.66994,0.162719,0.0242772
2.69183,-0.130543,0.00357478
2.66972,-0.0319397,-0.0219951
2.6202,0.158907,-0.0720394
2.59444,0.0616199,-0.141049
2.56709,0.154427,-0.164684
2.53284,0.0592723,-0.230525
2.51669,0.15091,-0.254273
2.53983,-0.126549,-0.276795
2.49789,0.0572766,-0.320381
2.47591,-0.0346346,-0.38563
2.45296,0.0552612,-0.40632
2.4427,-0.126453,-0.44989
2.42958,-0.0353014,-0.470641
2.39243,0.141783,-0.513399
2.34731,0.13915,-0.596881
2.78026,0.155392,0.228985
2.72897,0.151092,0.124781
2.73306,-0.147539,0.103711
2.7175,-0.0477188,0.0767728
2.68806,0.0501585,0.0502611
2.67088,0.146333,0.0242772
2.62611,0.143099,-0.0721766
2.58978,0.0456116,-0.140778
2.56301,0.138404,-0.164364
2.52154,0.135679,-0.254674
2.54496,-0.142464,-0.277444
2.4972,0.0419321,-0.320254
2.47565,-0.0498258,-0.38563
2.45128,0.0401768,-0.405993
2.43709,0.129684,-0.429278
2.43697,-0.141155,-0.448986
2.4254,-0.0501272,-0.46988
2.36977,0.036524,-0.575828
2.34812,0.124745,-0.596881
2.88867,-0.0649257,0.400321
2.86305,0.0403501,0.368885
2.78315,0.138429,0.229149
2.73085,0.134394,0.124827
2.73509,-0.164486,0.103825
2.71416,-0.0643211,0.0766881
2.69932,0.0338017,0.0504667
2.66674,0.129699,0.0242318
2.63039,0.0315152,-0.0469274
2.62395,0.126838,-0.0720943
2.594,0.029766,-0.140995
2.56979,0.122961,-0.164748
2.53338,0.028186,-0.230525
2.52432,0.120299,-0.254875
2.54106,-0.157892,-0.27712
2.49146,0.0265454,-0.319491
2.49951,-0.157105,-0.365672
2.4574,0.0251959,-0.406974
2.43784,0.114728,-0.429278
2.43998,-0.156357,-0.449709
2.427,-0.0650608,-0.470261
2.39399,0.112414,-0.513399
2.34593,0.110198,-0.596143
2.89218,-0.0827624,0.40087
2.78096,0.121219,0.228903
2.73478,0.0187526,0.15089
2.73062,0.117592,0.124781
2.73802,-0.181529,0.103976
2.71271,-0.0809438,0.0766599
2.69547,0.0172128,0.050392
2.67548,0.113674,0.0243044
2.62268,0.110651,-0.0720394
2.59413,0.013849,-0.140995
2.5685,0.107108,-0.16462
2.52799,0.104932,-0.255176
2.53806,-0.173345,-0.276903
2.52699,-0.0808763,-0.299824
2.49455,0.011271,-0.319872
2.4788,-0.0803301,-0.386246
2.45948,0.0101252,-0.4073
2.43653,0.0996872,-0.428931
2.44683,-0.171877,-0.451157
2.42754,-0.0799837,-0.470451
2.34947,0.0959201,-0.596881
2.89558,-0.100645,0.401419
2.85341,0.00519492,0.367607
2.77867,0.104041,0.228657
2.73883,0.00197481,0.151111
2.73129,0.100835,0.124781
2.74782,-0.19912,0.104393
2.71916,-0.0978387,0.0768575
2.70353,0.000675342,0.0505415
2.67113,0.0970734,0.024259
2.68882,-0.196638,0.00357611
2.64158,-0.000769365,-0.0471236
2.62431,0.0945922,-0.0720668
2.59018,-0.0020654,-0.140778
2.57011,0.0913811,-0.164684
2.57562,-0.0967254,-0.210274
2.53356,0.0895944,-0.255677
2.54389,-0.189432,-0.277661
2.52843,-0.0964558,-0.300059
2.50251,-0.00404831,-0.32089
2.50233,-0.188137,-0.366394
2.47629,-0.0954621,-0.385938
2.46048,-0.00496804,-0.407464
2.43611,0.0847009,-0.428758
2.4418,-0.186587,-0.450433
2.42799,-0.0949157,-0.470641
2.41727,-0.0060199,-0.492811
2.30338,0.0799252,-0.680036
2.8524,-0.0123091,0.367479
2.77925,0.0869895,0.228657
2.72886,0.0839822,0.124644
2.75053,-0.21629,0.104544
2.71451,-0.114353,0.0767446
2.70648,-0.0159309,0.0505976
2.67367,0.0807422,0.0242772
2.68656,-0.213053,0.00357478
2.67048,-0.113946,-0.0220198
2.64952,-0.0170292,-0.0472662
2.62784,0.0785776,-0.0721491
2.58612,-0.0179307,-0.140561
2.57461,0.0757268,-0.16494
2.59497,-0.208159,-0.186881
2.53645,-0.0184718,-0.230797
2.53306,0.074018,-0.255577
2.54763,-0.205437,-0.278202
2.50343,-0.019411,-0.321017
2.49817,-0.203247,-0.365961
2.47664,-0.110699,-0.386092
2.46139,-0.0200732,-0.407627
2.43855,0.069808,-0.429105
2.43767,-0.201323,-0.44989
2.43226,-0.110034,-0.471592
2.41621,-0.0208434,-0.492611
2.35047,0.0670813,-0.596881
2.30479,0.0658178,-0.680318
2.85723,-0.0298627,0.368118
2.84294,0.0734613,0.338811
2.77774,0.0698846,0.228493
2.72633,0.0671628,0.124507
2.73919,-0.232319,0.104165
2.72174,-0.131392,0.0769705
2.70633,-0.0325372,0.0505976
2.67512,0.0643594,0.0242863
2.69019,-0.229959,0.00358141
2.67872,-0.130768,-0.0220939
2.65137,-0.0333112,-0.0473019
2.62827,0.0624521,-0.0721491
2.59794,-0.0339551,-0.141212
2.57602,0.0599511,-0.165003
2.59662,-0.224335,-0.187096
2.57125,-0.128176,-0.21003
2.53828,-0.0340615,-0.230978
2.53347,0.0584741,-0.255577
2.54534,-0.220979,-0.278093
2.4983,-0.0347025,-0.320381
2.50575,-0.219348,-0.367261
2.47888,-0.126044,-0.386553
2.44484,0.0549769,-0.430144
2.44423,-0.216972,-0.451338
2.4335,-0.125056,-0.471972
2.41603,-0.0356686,-0.492611
2.34018,0.052419,-0.594174
2.30898,0.0517606,-0.681451
2.85997,-0.0474431,0.368501
2.78011,0.0528773,0.228657
2.72669,0.0504331,0.124507
2.74269,-0.249574,0.104355
2.72388,-0.148253,0.0770552
2.70308,-0.0490879,0.0505415
2.67846,0.0479977,0.0243135
2.6937,-0.246918,0.00358805
2.67986,-0.147312,-0.0221104
2.65311,-0.0496164,-0.0473376
2.6246,0.0462537,-0.0720394
2.57535,0.0441267,-0.16494
2.57739,-0.144341,-0.210599
2.53577,0.0429616,-0.255778
2.54393,-0.236592,-0.278093
2.50435,-0.234719,-0.367261
2.47806,-0.141251,-0.386553
2.45603,-0.0501761,-0.40681
2.44415,0.0399585,-0.429971
2.44774,-0.232431,-0.452242
2.42877,-0.13976,-0.471211
2.41969,-0.0505743,-0.49341
2.39924,0.0389731,-0.514027
2.3453,0.0381378,-0.595404
2.30159,0.0374671,-0.679187
2.86458,-0.0651033,0.36914
2.8476,0.0386224,0.339284
2.73394,0.0337879,0.124827
2.7299,-0.165387,0.0772528
2.70373,-0.065697,0.0505602
2.6767,0.0315386,0.0242953
2.69911,-0.264123,0.00359733
2.67392,-0.163447,-0.0220692
2.65876,-0.0660437,-0.0474446
2.62484,0.0301485,-0.0720394
2.58255,0.0284006,-0.165387
2.59367,-0.256183,-0.187096
2.57944,-0.160338,-0.210843
2.54066,-0.0652844,-0.23125
2.53101,0.0273478,-0.255276
2.5543,-0.253375,-0.279392
2.52629,-0.15854,-0.300177
2.4967,-0.065332,-0.320254
2.50681,-0.250475,-0.367839
2.4801,-0.156641,-0.387015
2.46455,-0.0654809,-0.408281
2.44336,0.0249507,-0.429798
2.45019,-0.247841,-0.452966
2.4308,-0.154847,-0.471782
2.41933,-0.0654203,-0.49341
2.40237,0.0242805,-0.514655
2.35421,0.0238349,-0.597619
2.334,-0.0642952,-0.662291
2.30849,0.0234122,-0.681167
2.86016,-0.0825644,0.368629
2.83984,0.0210901,0.338338
2.7351,0.0170183,0.124872
2.72984,-0.182201,0.077281
2.70827,-0.0824377,0.0506537
2.67785,0.0151197,0.0243044
2.70539,-0.281508,0.00360794
2.67885,-0.180254,-0.0221187
2.64431,-0.0819228,-0.0471949
2.62497,0.0140423,-0.0720394
2.59887,-0.0818318,-0.14132
2.57569,0.0125199,-0.16494
2.60396,-0.273342,-0.187955
2.57343,-0.175822,-0.210436
2.5432,-0.0809674,-0.231522
2.52914,0.011808,-0.255075
2.55567,-0.269356,-0.279717
2.52626,-0.174106,-0.300295
2.51112,-0.0811306,-0.322162
2.49232,0.0103311,-0.344245
2.47614,-0.17165,-0.386553
2.46509,-0.0806341,-0.408444
2.45449,-0.263501,-0.454051
2.42687,-0.169554,-0.471211
2.41595,-0.0801663,-0.492811
2.37648,-0.0800608,-0.577717
2.31338,0.00926638,-0.682582
2.86158,-0.100182,0.368885
2.83594,0.00365965,0.337865
2.7846,0.00169798,0.228985
2.73615,0.000235789,0.124918
2.7426,-0.30056,0.104544
2.73265,-0.199238,0.077394
2.70871,-0.0990903,0.0506724
2.67789,-0.00131158,0.0243044
2.7056,-0.298322,0.0036106
2.6747,-0.196468,-0.0220939
2.64476,-0.0981835,-0.0472127
2.63601,-0.00207319,-0.0723412
2.60531,-0.0980395,-0.1417
2.57472,-0.00328324,-0.164876
2.60421,-0.289535,-0.188098
2.5733,-0.191684,-0.210518
2.54962,-0.0968353,-0.232156
2.53514,-0.00371947,-0.255677
2.551,-0.284701,-0.279392
2.52911,-0.189901,-0.300766
2.50066,-0.0961559,-0.32089
2.49134,-0.00495969,-0.344108
2.50256,-0.281108,-0.367694
2.47799,-0.187063,-0.387015
2.46554,-0.0957964,-0.408607
2.44644,-0.00504109,-0.430317
2.4538,-0.278667,-0.454232
2.42774,-0.184591,-0.471592
2.41541,-0.0949888,-0.492811
2.3976,-0.00519153,-0.513608
2.37885,-0.0947571,-0.578425
2.31148,-0.00492436,-0.682016
2.87281,-0.118228,0.370418
2.84187,-0.0137703,0.338575
2.84267,-0.222756,0.28908
2.78556,-0.0153935,0.229067
2.75036,-0.116218,0.151882
2.74209,-0.0165892,0.125191
2.72939,-0.215844,0.0773375
2.70905,-0.115751,0.050691
2.67883,-0.0177494,0.0243135
2.70968,-0.315612,0.00361856
2.67345,-0.212876,-0.0220939
2.6451,-0.114453,-0.0472306
2.60366,-0.11398,-0.141646
2.57865,-0.019111,-0.165131
2.59842,-0.305043,-0.187812
2.57903,-0.20803,-0.211087
2.54599,-0.112346,-0.231884
2.53905,-0.019305,-0.256079
2.55809,-0.301395,-0.280366
2.53186,-0.205738,-0.301237
2.49721,-0.0202945,-0.344929
2.50079,-0.296458,-0.367694
2.47877,-0.202425,-0.387323
2.46194,-0.11079,-0.408117
2.44735,-0.0200601,-0.430491
2.454,-0.293952,-0.454594
2.42754,-0.199564,-0.471782
2.41968,-0.11003,-0.49381
2.39654,-0.0198947,-0.513399
2.37823,-0.109352,-0.578425
2.30565,-0.0190597,-0.680318
2.84074,-0.0311965,0.338456
2.78242,-0.0324502,0.228821
2.74194,-0.033414,0.125191
2.72602,-0.232417,0.077281
2.70929,-0.132421,0.0507097
2.69067,-0.0343392,0.0244224
2.70372,-0.331745,0.00361325
2.68205,-0.230131,-0.0221763
2.65034,-0.130977,-0.0473376
2.63757,-0.22738,-0.118456
2.6069,-0.130153,-0.141863
2.58148,-0.0349735,-0.165323
2.60244,-0.321716,-0.188241
2.58366,-0.224368,-0.211575
2.55421,-0.128416,-0.2327
2.53391,-0.0348156,-0.255577
2.55817,-0.31733,-0.280582
2.53549,-0.221701,-0.301826
2.50524,-0.127137,-0.321653
2.49506,-0.0355884,-0.344655
2.4999,-0.311919,-0.367839
2.48043,-0.21789,-0.387784
2.46023,-0.125844,-0.407954
2.44521,-0.0350481,-0.430144
2.45508,-0.309373,-0.455136
2.43116,-0.214888,-0.472733
2.42189,-0.125027,-0.494409
2.39736,-0.0346134,-0.513608
2.30741,-0.0332341,-0.680884
2.84049,-0.0486264,0.338456
2.74468,-0.0502925,0.125328
2.72952,-0.249595,0.0774222
2.70843,-0.149042,0.0507097
2.69141,-0.0508671,0.0244315
2.69767,-0.347817,0.00360794
2.68358,-0.246858,-0.022201
2.65348,-0.147458,-0.0474089
2.63612,-0.24356,-0.118456
2.60605,-0.146146,-0.141863
2.58121,-0.0508124,-0.165323
2.57926,-0.23994,-0.211331
2.5484,-0.143805,-0.232247
2.54061,-0.0505011,-0.256279
2.55913,-0.333406,-0.280907
2.53804,-0.237625,-0.302297
2.5054,-0.142563,-0.32178
2.50089,-0.327638,-0.368272
2.48889,-0.234031,-0.389323
2.46532,-0.141275,-0.408934
2.44396,-0.0500308,-0.429971
2.45606,-0.324818,-0.455679
2.43371,-0.230171,-0.473493
2.42793,-0.14028,-0.495808
2.4059,-0.0495037,-0.515493
2.3738,-0.138358,-0.577717
2.31004,-0.0474506,-0.681733
2.73733,-0.0669616,0.125009
2.72495,-0.266046,0.0773375
2.70547,-0.165536,0.0506724
2.69504,-0.0674804,0.0244678
2.71035,-0.366372,0.00362784
2.68699,-0.263808,-0.0222422
2.64953,-0.163552,-0.0473554
2.64615,-0.0670419,-0.0726429
2.63955,-0.26022,-0.11868
2.60212,-0.161947,-0.1417
2.58085,-0.0666495,-0.165323
2.58071,-0.256057,-0.211575
2.54025,-0.066089,-0.256279
2.54049,-0.253588,-0.302768
2.50844,-0.158183,-0.322289
2.4974,-0.0662828,-0.345066
2.50373,-0.34365,-0.368995
2.48445,-0.249003,-0.388862
2.46835,-0.15665,-0.409588
2.44459,-0.065052,-0.430144
2.45791,-0.340421,-0.456403
2.43029,-0.244903,-0.473113
2.42604,-0.155113,-0.495608
2.40164,-0.0641606,-0.514655
2.37678,-0.153171,-0.578662
2.35737,-0.0629368,-0.598603
2.37741,-0.333332,-0.630204
2.30299,-0.0614447,-0.679753
2.84465,-0.0836258,0.339048
2.73487,-0.0836952,0.124918
2.72923,-0.283381,0.0775069
2.71238,-0.18267,0.0508219
2.71003,-0.383276,0.00363049
2.69129,-0.280913,-0.0222917
2.64769,-0.08334,-0.0726978
2.6389,-0.276515,-0.118724
2.60406,-0.178115,-0.141863
2.59137,-0.0828348,-0.166026
2.58603,-0.272619,-0.212144
2.54079,-0.0817064,-0.25638
2.56469,-0.366191,-0.281989
2.53592,-0.268857,-0.302415
2.51336,-0.173982,-0.323052
2.492,-0.0814435,-0.344381
2.50549,-0.359568,-0.369572
2.48583,-0.264556,-0.389323
2.46636,-0.171724,-0.409424
2.44809,-0.0801794,-0.430837
2.46162,-0.356342,-0.457488
2.43558,-0.260541,-0.474444
2.427,-0.170133,-0.496007
2.40022,-0.0788634,-0.514446
2.37774,-0.167889,-0.579134
2.36179,-0.0775593,-0.599833
2.74628,-0.100915,0.125465
2.73042,-0.30045,0.0775916
2.71121,-0.19931,0.0508219
2.70466,-0.399459,0.00362651
2.69051,-0.297531,-0.0222999
2.65431,-0.196571,-0.0474803
2.64613,-0.0995468,-0.0726704
2.60392,-0.194164,-0.141917
2.5938,-0.0988475,-0.166218
2.59025,-0.289144,-0.212632
2.55327,-0.191284,-0.232972
2.54422,-0.0974472,-0.256781
2.56534,-0.38236,-0.282314
2.54508,-0.285631,-0.30371
2.51719,-0.189774,-0.323688
2.4964,-0.0969248,-0.345066
2.50813,-0.375668,-0.370295
2.48416,-0.279804,-0.389323
2.46526,-0.186854,-0.409424
2.44853,-0.0952374,-0.43101
2.46522,-0.372321,-0.458573
2.43686,-0.275812,-0.475015
2.41907,-0.1845,-0.494609
2.39676,-0.0934751,-0.513818
2.38054,-0.182773,-0.580078
2.3603,-0.0920117,-0.599587
2.79306,-0.118334,0.229886
2.7536,-0.118106,0.12583
2.73051,-0.317429,0.0776481
2.71791,-0.216577,0.0509714
2.70314,-0.416199,0.00362784
2.69161,-0.314382,-0.0223246
2.65704,-0.213173,-0.0475516
2.64647,-0.115825,-0.0726978
2.59315,-0.114761,-0.166218
2.59041,-0.305266,-0.212794
2.56296,-0.207832,-0.233968
2.54556,-0.113145,-0.256982
2.54722,-0.301709,-0.304181
2.51499,-0.205135,-0.323561
2.49378,-0.112152,-0.344792
2.48239,-0.295041,-0.389323
2.46505,-0.202057,-0.409588
2.4479,-0.110259,-0.43101
2.47066,-0.388663,-0.460021
2.41692,-0.199259,-0.494409
2.39907,-0.108312,-0.514446
2.38131,-0.197537,-0.58055
2.35581,-0.106318,-0.598603
2.31297,-0.104344,-0.683148
2.79228,-0.135469,0.229886
2.75083,-0.134902,0.125739
2.73447,-0.334906,0.0778175
2.71553,-0.233164,0.0509527
2.69857,-0.133897,0.0245222
2.7035,-0.433252,0.00363182
2.69162,-0.331136,-0.0223411
2.66265,-0.230075,-0.0476765
2.64072,-0.131812,-0.0725606
2.6083,-0.226709,-0.142297
2.59239,-0.13067,-0.166218
2.59047,-0.3214,-0.212957
2.56363,-0.223727,-0.23415
2.5478,-0.128913,-0.257283
2.54237,-0.316964,-0.303828
2.51665,-0.220823,-0.323942
2.5069,-0.128159,-0.346707
2.48348,-0.310635,-0.389785
2.46573,-0.217352,-0.409914
2.45308,-0.12558,-0.43205
2.47114,-0.404291,-0.460563
2.43524,-0.30594,-0.475395
2.41858,-0.214344,-0.495008
2.38295,-0.212403,-0.581258
2.36286,-0.121168,-0.600571
2.74496,-0.151503,0.125511
2.7393,-0.352571,0.0780152
2.71803,-0.250189,0.0510275
2.70469,-0.150842,0.0245858
2.71164,-0.451639,0.00364641
2.69251,-0.348029,-0.0223658
2.66716,-0.246962,-0.0477835
2.64285,-0.148181,-0.0726429
2.60885,-0.242894,-0.142406
2.59154,-0.146574,-0.166218
2.55824,-0.239083,-0.233787
2.54696,-0.144543,-0.257283
2.54431,-0.333073,-0.304299
2.51327,-0.236075,-0.323688
2.5031,-0.143369,-0.346297
2.51738,-0.424568,-0.372751
2.49034,-0.327025,-0.39117
2.46631,-0.232663,-0.410241
2.45423,-0.140742,-0.432396
2.47443,-0.420435,-0.461649
2.44111,-0.321903,-0.476916
2.42014,-0.229458,-0.495608
2.39952,-0.137856,-0.514865
2.37677,-0.22656,-0.580078
2.35627,-0.13533,-0.599095
2.36004,-0.314524,-0.649868
2.74597,-0.168465,0.125602
2.73907,-0.36964,0.0780716
2.71545,-0.266764,0.0510088
2.69672,-0.167003,0.0245222
2.70882,-0.468269,0.00364641
2.68537,-0.363872,-0.0223246
2.66361,-0.263126,-0.0477478
2.64588,-0.164642,-0.0727527
2.60632,-0.258798,-0.142352
2.5886,-0.162348,-0.16609
2.59423,-0.354243,-0.213607
2.55099,-0.160481,-0.257785
2.54911,-0.349623,-0.305123
2.52164,-0.25248,-0.32496
2.51765,-0.440518,-0.373184
2.49123,-0.342703,-0.391631
2.46876,-0.248186,-0.410895
2.4543,-0.15586,-0.432569
2.43908,-0.336875,-0.476916
2.41771,-0.244205,-0.495408
2.38113,-0.241728,-0.581495
2.3641,-0.150339,-0.601309
2.31735,-0.147326,-0.685129
2.7419,-0.185109,0.125465
2.73576,-0.3863,0.0780434
2.71973,-0.284044,0.0511209
2.70463,-0.184158,0.0246039
2.68407,-0.380483,-0.0223328
2.65996,-0.279256,-0.0477122
2.63984,-0.180533,-0.0726155
2.61064,-0.275414,-0.142677
2.59595,-0.370718,-0.213933
2.56105,-0.271087,-0.234331
2.545,-0.175788,-0.257283
2.55281,-0.366104,-0.30583
2.51906,-0.267843,-0.324833
2.52172,-0.457194,-0.374196
2.49299,-0.358546,-0.392247
2.46818,-0.263434,-0.411058
2.4533,-0.170917,-0.432569
2.46909,-0.450768,-0.461649
2.44863,-0.353518,-0.479198
2.3854,-0.256958,-0.582911
2.36023,-0.16464,-0.600571
2.74669,-0.20237,0.125739
2.71297,-0.300176,0.0510275
2.69946,-0.200453,0.0245676
2.68762,-0.397824,-0.0223823
2.67012,-0.296898,-0.0479262
2.64267,-0.197025,-0.0727252
2.62081,-0.292758,-0.143328
2.59856,-0.387375,-0.214339
2.54685,-0.191624,-0.257584
2.5515,-0.381907,-0.305948
2.52328,-0.28396,-0.325596
2.52178,-0.473206,-0.374629
2.49856,-0.375009,-0.393478
2.47436,-0.279459,-0.412365
2.44926,-0.185743,-0.43205
2.47304,-0.467188,-0.462915
2.44933,-0.368975,-0.479768
2.43011,-0.275622,-0.498604
2.4034,-0.182518,-0.516331
2.37992,-0.27115,-0.581967
2.36208,-0.179339,-0.601309
2.74738,-0.219378,0.12583
2.69205,-0.415374,-0.0224399
2.64639,-0.213638,-0.0728624
2.61797,-0.308716,-0.143274
2.5486,-0.20749,-0.257885
2.52445,-0.299788,-0.325977
2.5198,-0.488858,-0.374774
2.50207,-0.391248,-0.394401
2.47651,-0.295103,-0.413019
2.45004,-0.200929,-0.432396
2.47399,-0.483107,-0.463639
2.44799,-0.384149,-0.479959
2.42837,-0.290528,-0.498604
2.40321,-0.197342,-0.516541
2.39365,-0.287602,-0.585744
2.37349,-0.19486,-0.604508
2.34687,-0.281982,-0.670478
2.74897,-0.236489,0.125967
2.6948,-0.233392,0.0245495
2.6934,-0.432519,-0.0224729
2.64204,-0.229613,-0.0727801
2.61702,-0.324897,-0.143328
2.60541,-0.421142,-0.215315
2.55223,-0.223558,-0.258387
2.57761,-0.514587,-0.286101
2.52354,-0.315395,-0.326104
2.52937,-0.506838,-0.376652
2.49669,-0.406118,-0.39394
2.47857,-0.310784,-0.413672
2.45268,-0.216305,-0.433089
2.47291,-0.498667,-0.464
2.45043,-0.399953,-0.480909
2.43141,-0.306035,-0.499603
2.36356,-0.208653,-0.602293
2.81267,-0.257879,0.232263
2.75244,-0.25381,0.126195
2.70527,-0.251031,0.0246584
2.68971,-0.448873,-0.0224646
2.65253,-0.246931,-0.0731093
2.65836,-0.444737,-0.120602
2.61794,-0.341336,-0.143491
2.59333,-0.242699,-0.166793
2.59787,-0.436295,-0.214908
2.5714,-0.336181,-0.235962
2.55279,-0.2394,-0.258587
2.52058,-0.330744,-0.325977
2.51486,-0.237171,-0.348897
2.49805,-0.422088,-0.394555
2.48444,-0.327017,-0.414979
2.46013,-0.232183,-0.434648
2.46691,-0.51323,-0.463458
2.46245,-0.417443,-0.483762
2.43045,-0.321076,-0.499803
2.39764,-0.317976,-0.587633
2.36802,-0.223698,-0.60377
2.8269,-0.276685,0.233574
2.72064,-0.368814,0.0513266
2.70965,-0.268217,0.0247128
2.65096,-0.263202,-0.0731093
2.67811,-0.566175,-0.0964497
2.62471,-0.358609,-0.14398
2.60496,-0.453938,-0.215722
2.57719,-0.353034,-0.236687
2.55623,-0.255554,-0.259089
2.5244,-0.347014,-0.32674
2.51533,-0.252795,-0.34917
2.52586,-0.538458,-0.377085
2.50028,-0.438261,-0.395325
2.48043,-0.341985,-0.414652
2.4567,-0.247076,-0.434302
2.46564,-0.52877,-0.463819
2.45791,-0.432204,-0.483381
2.43717,-0.337192,-0.501601
2.36854,-0.238418,-0.604262
2.7302,-0.387186,0.0515509
2.70695,-0.284733,0.0247038
2.65427,-0.279988,-0.0732465
2.6658,-0.580683,-0.0961328
2.62641,-0.375273,-0.144197
2.59711,-0.275241,-0.16724
2.60899,-0.471153,-0.216291
2.58089,-0.369687,-0.237231
2.55758,-0.271549,-0.25939
2.53106,-0.363767,-0.327885
2.51669,-0.26854,-0.349581
2.52251,-0.553946,-0.377085
2.50629,-0.455183,-0.39671
2.48805,-0.358606,-0.416286
2.45612,-0.26225,-0.434475
2.45714,-0.447629,-0.483762
2.43603,-0.35228,-0.5018
2.41514,-0.258131,-0.520311
2.36799,-0.25305,-0.604508
2.72777,-0.403931,0.0515509
2.70516,-0.301337,0.0247038
2.64853,-0.295825,-0.0731367
2.66249,-0.495972,-0.121183
2.63492,-0.393001,-0.144794
2.60826,-0.292618,-0.168071
2.61095,-0.488069,-0.216697
2.57758,-0.385369,-0.23714
2.5529,-0.286903,-0.259089
2.52878,-0.37929,-0.327885
2.51597,-0.284088,-0.349717
2.52099,-0.56985,-0.377374
2.50928,-0.471648,-0.397633
2.49166,-0.374746,-0.417266
2.46425,-0.278422,-0.436207
2.46014,-0.463789,-0.484903
2.4406,-0.368243,-0.503199
2.42031,-0.273714,-0.521777
2.39619,-0.362783,-0.588813
2.36351,-0.267248,-0.60377
2.71319,-0.319098,0.0247945
2.66056,-0.313709,-0.0735208
2.66332,-0.513055,-0.121362
2.63641,-0.409775,-0.145011
2.63254,-0.60892,-0.19397
2.57517,-0.401178,-0.23714
2.54911,-0.302328,-0.258888
2.52346,-0.39434,-0.327503
2.51123,-0.299169,-0.349307
2.52516,-0.5871,-0.37853
2.51507,-0.488732,-0.399018
2.49321,-0.390638,-0.41792
2.46543,-0.293886,-0.436727
2.46206,-0.479814,-0.485853
2.44507,-0.384277,-0.504597
2.41276,-0.287865,-0.520521
2.40064,-0.378538,-0.590466
2.70522,-0.335003,0.0247401
2.66652,-0.331013,-0.0737403
2.66208,-0.529777,-0.121451
2.63581,-0.426263,-0.145119
2.6307,-0.625523,-0.194113
2.61356,-0.521829,-0.217429
2.57856,-0.417927,-0.237684
2.55511,-0.318949,-0.259691
2.52491,-0.410453,-0.328012
2.51525,-0.315311,-0.350128
2.53017,-0.604653,-0.37983
2.48882,-0.405612,-0.417593
2.46651,-0.309376,-0.437247
2.45811,-0.494718,-0.485663
2.44557,-0.399746,-0.505196
2.36582,-0.296956,-0.605246
2.66841,-0.347886,-0.07385
2.66074,-0.546504,-0.12154
2.63512,-0.442759,-0.145228
2.60639,-0.341096,-0.168327
2.62778,-0.641889,-0.194184
2.61324,-0.538459,-0.217673
2.57398,-0.43341,-0.237502
2.55508,-0.334879,-0.259892
2.53604,-0.42825,-0.329793
2.51621,-0.331126,-0.350538
2.52834,-0.620638,-0.380119
2.51759,-0.521362,-0.400403
2.49212,-0.421863,-0.418573
2.4675,-0.32489,-0.437767
2.44887,-0.415729,-0.506395
2.41389,-0.31809,-0.521568
2.37164,-0.31248,-0.607214
2.70884,-0.369255,0.0248127
2.66325,-0.363846,-0.0737677
2.65147,-0.561577,-0.121272
2.63825,-0.459948,-0.145554
2.60326,-0.356947,-0.168263
2.61476,-0.555519,-0.21808
2.58403,-0.451424,-0.23868
2.56086,-0.351634,-0.260695
2.52198,-0.347641,-0.351633
2.52448,-0.63614,-0.380119
2.51145,-0.536181,-0.399941
2.47619,-0.341505,-0.439672
2.44627,-0.430747,-0.506395
2.4274,-0.335034,-0.524919
2.37736,-0.328086,-0.609182
2.71345,-0.386857,0.0248762
2.66591,-0.380888,-0.0739049
2.65481,-0.579327,-0.121585
2.63637,-0.476305,-0.145608
2.62374,-0.376171,-0.169732
2.61227,-0.571765,-0.218161
2.56358,-0.368047,-0.261196
2.54816,-0.462528,-0.332082
2.52569,-0.363957,-0.352454
2.52244,-0.652114,-0.380408
2.51197,-0.55243,-0.400557
2.49938,-0.454709,-0.420697
2.47795,-0.357254,-0.440365
2.44937,-0.446804,-0.507593
2.41949,-0.349084,-0.523662
2.67144,-0.398418,-0.0741243
2.63143,-0.492105,-0.145499
2.61842,-0.39182,-0.169541
2.60191,-0.58625,-0.217592
2.57209,-0.385392,-0.2623
2.5443,-0.477971,-0.331955
2.51459,-0.378122,-0.351223
2.51046,-0.568269,-0.400864
2.49654,-0.470037,-0.420697
2.48155,-0.373331,-0.441404
2.44947,-0.46237,-0.508193
2.4231,-0.364797,-0.524919
2.67586,-0.415876,-0.0743164
2.63326,-0.50919,-0.145771
2.61893,-0.40834,-0.169732
2.61186,-0.605354,-0.21873
2.58115,-0.500047,-0.239224
2.57165,-0.401473,-0.262501
2.58981,-0.701556,-0.292052
2.54716,-0.494708,-0.332718
2.51614,-0.394157,-0.35177
2.50981,-0.584334,-0.401326
2.49361,-0.485346,-0.420697
2.45524,-0.479079,-0.509991
2.42661,-0.380567,-0.526176
2.6772,-0.432926,-0.0744261
2.63596,-0.526511,-0.146096
2.62524,-0.42584,-0.170308
2.611,-0.622062,-0.218974
2.58291,-0.516853,-0.239677
2.57797,-0.418681,-0.263404
2.54602,-0.510718,-0.332972
2.52149,-0.410863,-0.352864
2.51483,-0.601793,-0.402711
2.49445,-0.501415,-0.421351
2.43689,-0.491039,-0.506794
2.67745,-0.449841,-0.0745084
2.61077,-0.43995,-0.169541
2.61004,-0.638782,-0.219218
2.58555,-0.5339,-0.240221
2.56653,-0.433001,-0.262501
2.54672,-0.527135,-0.333481
2.52869,-0.42798,-0.354233
2.50821,-0.616505,-0.402249
2.49133,-0.516711,-0.421351
2.42176,-0.410317,-0.526176
2.6835,-0.467807,-0.0747553
2.62277,-0.458539,-0.170499
2.58417,-0.550169,-0.240402
2.5746,-0.450628,-0.263605
2.55411,-0.545028,-0.33488
2.52797,-0.44383,-0.354506
2.50162,-0.534876,-0.423638
2.67468,-0.483197,-0.0745907
2.62187,-0.474979,-0.170627
2.57668,-0.467305,-0.264106
2.55266,-0.561116,-0.335135
2.53397,-0.460928,-0.355738
2.49829,-0.550216,-0.423638
2.48347,-0.451921,-0.444003
2.67363,-0.499967,-0.0746456
2.62577,-0.492345,-0.171074
2.56986,-0.482372,-0.263705
2.54723,-0.57633,-0.33488
2.50256,-0.567279,-0.424945
2.48452,-0.46788,-0.444696
2.56685,-0.498131,-0.263705
2.54558,-0.592398,-0.335135
2.53687,-0.493692,-0.356969
2.49039,-0.580608,-0.423475
2.48353,-0.483492,-0.445042
2.54672,-0.60916,-0.33577
2.53088,-0.508664,-0.356559
2.48245,-0.49911,-0.445389
2.62212,-0.541805,-0.171458
2.56931,-0.531407,-0.264608
2.54293,-0.624775,-0.33577
2.53062,-0.524787,-0.356969
2.47741,-0.513932,-0.445042
2.63339,-0.561003,-0.172416
2.58546,-0.551311,-0.266615
2.55059,-0.643277,-0.337297
2.53898,-0.542789,-0.358611
2.47903,-0.530154,-0.445909
2.63087,-0.577364,-0.17248
2.58592,-0.568019,-0.267016
2.5562,-0.6614,-0.338569
2.47958,-0.546202,-0.446602
2.58433,-0.584314,-0.267217
2.5636,-0.680124,-0.340095
2.53213,-0.573906,-0.358611
2.57585,-0.599033,-0.266715
2.55746,-0.695321,-0.33984
2.54303,-0.592805,-0.360663
2.54031,-0.608629,-0.3608
2.5799,-0.633445,-0.267919
2.53556,-0.623967,-0.360663
2.58271,-0.650965,-0.268622
2.52977,-0.639028,-0.36039
2.58349,-0.668045,-0.269124
