2.38073,1.00134,-0.281123
2.39534,0.938981,-0.280041
2.33235,0.912364,-0.365672
2.33698,0.897681,-0.365527
2.39552,0.905299,-0.278743
2.37051,0.995314,-0.304888
2.34059,0.882626,-0.365238
2.39637,0.888855,-0.278202
2.34039,0.866187,-0.364371
2.39524,0.871754,-0.277444
2.34752,0.852486,-0.36466
2.40148,0.857375,-0.277552
2.34432,0.835078,-0.36336
2.3522,0.821656,-0.363793
2.41935,0.931243,-0.211493
2.409,0.826872,-0.277228
2.35439,0.806246,-0.36336
2.30012,0.784523,-0.446996
2.42968,0.918142,-0.2119
2.38417,0.899327,-0.302179
2.35249,0.986908,-0.327122
2.35367,0.789896,-0.362493
2.42592,0.899751,-0.211087
2.41235,0.79507,-0.27647
2.353,0.970186,-0.326359
2.35095,0.772967,-0.361337
2.42953,0.884167,-0.210924
2.35615,0.954613,-0.325977
2.35565,0.758527,-0.361337
2.4396,0.870919,-0.211331
2.40436,0.958327,-0.235509
2.36933,0.943072,-0.326995
2.35837,0.743464,-0.361048
2.31118,0.725483,-0.445549
2.43643,0.852969,-0.210599
2.39907,0.9392,-0.234422
2.41233,0.746125,-0.274847
2.37045,0.926711,-0.326359
2.35627,0.726937,-0.360037
2.30994,0.709555,-0.444463
2.43596,0.836062,-0.210111
2.41687,0.731309,-0.274847
2.39372,0.819977,-0.300059
2.36542,0.713895,-0.360759
2.31048,0.694236,-0.44374
2.4401,0.820782,-0.21003
2.4194,0.715902,-0.274631
2.39683,0.804642,-0.299824
2.36494,0.891256,-0.324069
2.36976,0.699368,-0.360759
2.3346,0.782711,-0.383476
2.3147,0.680046,-0.44374
2.44604,0.806106,-0.210111
2.40661,0.891423,-0.233515
2.42184,0.700491,-0.274414
2.36664,0.875351,-0.323561
2.37686,0.685637,-0.361193
2.31544,0.855357,-0.408771
2.32167,0.666645,-0.444283
2.55878,0.726783,0.00352836
2.38543,0.966897,-0.259591
2.37011,0.860137,-0.323306
2.33784,0.946182,-0.348349
2.37816,0.670235,-0.360759
2.34309,0.7537,-0.383322
2.31786,0.840125,-0.408281
2.32382,0.651856,-0.443921
2.23147,0.621919,-0.608114
2.44814,0.773626,-0.20946
2.3904,0.951874,-0.259491
2.42259,0.668602,-0.273549
2.36973,0.843582,-0.322543
2.34084,0.930721,-0.347939
2.3765,0.654054,-0.359892
2.34108,0.737232,-0.382245
2.32683,0.637325,-0.44374
2.26306,0.709408,-0.551855
2.23897,0.609231,-0.60913
2.45701,0.859963,-0.141483
2.44904,0.757412,-0.209135
2.39249,0.935739,-0.259089
2.42472,0.653208,-0.273332
2.37205,0.828045,-0.322162
2.37569,0.638177,-0.35917
2.3465,0.723144,-0.382398
2.32334,0.809994,-0.407464
2.33069,0.623036,-0.44374
2.26644,0.695223,-0.551628
2.23986,0.594737,-0.608368
2.46035,0.844223,-0.141375
2.38982,0.917831,-0.258186
2.42388,0.637054,-0.272791
2.40517,0.726149,-0.29794
2.37803,0.813796,-0.322289
2.37765,0.623086,-0.358881
2.34616,0.707307,-0.381629
2.33162,0.607979,-0.443197
2.27066,0.681303,-0.551628
2.23973,0.580012,-0.607352
2.4759,0.832612,-0.141972
2.4196,0.812741,-0.232247
2.42678,0.621923,-0.272683
2.40767,0.710815,-0.297704
2.37734,0.797297,-0.321526
2.34738,0.883637,-0.346434
2.37855,0.60775,-0.358448
2.34856,0.692339,-0.381321
2.32749,0.779542,-0.406484
2.32958,0.592207,-0.442112
2.30091,0.676939,-0.464556
2.2776,0.66818,-0.552308
2.24793,0.567442,-0.608622
2.39717,0.887054,-0.257785
2.42669,0.606057,-0.27225
2.41008,0.695478,-0.297469
2.37653,0.780837,-0.320763
2.35369,0.869561,-0.346571
2.3784,0.592188,-0.35787
2.34802,0.676547,-0.380552
2.33223,0.765246,-0.406484
2.33317,0.577902,-0.442112
2.30408,0.662536,-0.464366
2.24855,0.552945,-0.60786
2.47642,0.799099,-0.141429
2.44905,0.889736,-0.166857
2.4525,0.693016,-0.207916
2.40444,0.873007,-0.257985
2.4236,0.589511,-0.271493
2.40666,0.678521,-0.296527
2.38033,0.765937,-0.320635
2.38679,0.578749,-0.358592
2.36259,0.665073,-0.382245
2.33501,0.750318,-0.406157
2.33381,0.562883,-0.441569
2.24344,0.537111,-0.605575
2.47176,0.780881,-0.140886
2.45446,0.874692,-0.166857
2.45863,0.678485,-0.208078
2.41991,0.763572,-0.230888
2.40694,0.857236,-0.257684
2.43395,0.576232,-0.27225
2.40599,0.662423,-0.295938
2.37647,0.748635,-0.319491
2.36231,0.839948,-0.346297
2.38163,0.562048,-0.357292
2.359,0.648468,-0.381013
2.33298,0.733904,-0.405013
2.30884,0.820753,-0.43101
2.33147,0.547204,-0.440484
2.31298,0.634472,-0.464556
2.24952,0.523994,-0.606337
2.23273,0.60915,-0.631699
2.46073,0.859945,-0.166921
2.45889,0.66235,-0.207753
2.42455,0.748709,-0.230888
2.41028,0.841795,-0.257484
2.41001,0.647648,-0.295938
2.37818,0.733162,-0.319109
2.36555,0.824785,-0.346023
2.38118,0.546538,-0.356714
2.35721,0.632445,-0.38009
2.3365,0.719285,-0.40485
2.31104,0.805598,-0.430491
2.33862,0.533764,-0.441207
2.31683,0.620268,-0.464556
2.28296,0.609321,-0.549815
2.25458,0.510609,-0.606845
2.2355,0.59519,-0.631435
2.63272,0.594772,0.102272
2.53189,0.767234,-0.0471949
2.4518,0.839978,-0.165962
2.47792,0.555711,-0.182298
2.46002,0.64649,-0.207509
2.42528,0.732666,-0.230525
2.41069,0.825379,-0.256982
2.4321,0.544366,-0.271276
2.37693,0.716838,-0.318346
2.3612,0.807051,-0.344655
2.39125,0.533426,-0.357725
2.36583,0.619221,-0.38086
2.31315,0.790448,-0.429971
2.34089,0.519191,-0.441026
2.31489,0.604552,-0.463415
2.26145,0.497597,-0.60786
2.23164,0.579523,-0.629329
2.45596,0.824601,-0.165898
2.46201,0.630888,-0.207346
2.41005,0.808672,-0.25638
2.4354,0.529433,-0.271276
2.36986,0.793806,-0.345202
2.39157,0.518115,-0.357292
2.36671,0.60396,-0.380398
2.33663,0.688051,-0.403379
2.31982,0.776865,-0.430317
2.33538,0.502954,-0.439398
2.31856,0.590336,-0.463415
2.24808,0.659589,-0.569218
2.23515,0.565819,-0.629329
2.60585,0.655085,0.0758975
2.55769,0.641507,-0.0217232
2.46855,0.81201,-0.166409
2.46293,0.615046,-0.207102
2.42452,0.700086,-0.229619
2.41686,0.794491,-0.256581
2.43568,0.513864,-0.270952
2.37983,0.685967,-0.317583
2.36245,0.775235,-0.343424
2.3918,0.50282,-0.356858
2.36654,0.588473,-0.379782
2.33891,0.673155,-0.403053
2.32174,0.761695,-0.429798
2.34324,0.489621,-0.440303
2.32023,0.575626,-0.463035
2.23764,0.551862,-0.629065
2.56255,0.626038,-0.0217315
2.53019,0.716143,-0.0469095
2.48686,0.702522,-0.140452
2.46874,0.795318,-0.16609
2.48382,0.509205,-0.182012
2.46085,0.598508,-0.206615
2.43165,0.686008,-0.229891
2.42074,0.779341,-0.25648
2.43002,0.497116,-0.269978
2.39259,0.673771,-0.318728
2.36433,0.759816,-0.343013
2.39484,0.488134,-0.356858
2.36914,0.573708,-0.379629
2.3487,0.660393,-0.404033
2.32449,0.746832,-0.429451
2.33849,0.473672,-0.438856
2.31609,0.559534,-0.461513
2.25507,0.63169,-0.568982
2.26738,0.455315,-0.607099
2.24474,0.539023,-0.630119
2.58698,0.516276,0.00349917
2.53742,0.701404,-0.046963
2.51355,0.794113,-0.0723412
2.48728,0.686187,-0.140235
2.46691,0.778054,-0.165642
2.48298,0.493178,-0.181726
2.45866,0.58202,-0.206127
2.42717,0.668694,-0.229075
2.42548,0.764473,-0.25648
2.43888,0.483356,-0.270627
2.39859,0.659604,-0.318982
2.36895,0.745294,-0.343013
2.38809,0.471514,-0.355414
2.36685,0.557801,-0.378705
2.35175,0.645708,-0.403869
2.32621,0.731669,-0.428931
2.33942,0.458936,-0.438494
2.29635,0.629332,-0.48542
2.25589,0.438625,-0.60329
2.24143,0.523703,-0.628276
2.58519,0.499445,0.00349254
2.52219,0.779857,-0.0724509
2.51815,0.581477,-0.11564
2.48951,0.670393,-0.140126
2.48792,0.47831,-0.181869
2.45927,0.566252,-0.205883
2.42727,0.748697,-0.256179
2.4418,0.468382,-0.270627
2.39206,0.642046,-0.317583
2.37064,0.72987,-0.342603
2.38802,0.456295,-0.35498
2.36348,0.541722,-0.377628
2.35281,0.6305,-0.403379
2.32501,0.715643,-0.427892
2.34122,0.444389,-0.438313
2.31895,0.530195,-0.460753
2.303,0.61599,-0.486019
2.26329,0.425669,-0.604559
2.25024,0.511222,-0.629855
2.215,0.591251,-0.650284
2.58723,0.483389,0.00349122
2.51582,0.564702,-0.115372
2.49551,0.655613,-0.140235
2.46075,0.550716,-0.20572
2.43134,0.637847,-0.228713
2.42324,0.731202,-0.255276
2.43778,0.452122,-0.26987
2.39307,0.626603,-0.317201
2.37507,0.71531,-0.342603
2.38785,0.441094,-0.354547
2.36966,0.527855,-0.37809
2.35568,0.615802,-0.403216
2.32653,0.700512,-0.427372
2.34778,0.430725,-0.439037
2.32503,0.516595,-0.461323
2.30769,0.602095,-0.486219
2.25824,0.41039,-0.602528
2.2524,0.497197,-0.629592
2.59502,0.667658,0.0500929
2.58621,0.466795,0.00348591
2.54119,0.652342,-0.0468025
2.48981,0.63781,-0.139692
2.48869,0.446862,-0.181511
2.46506,0.535819,-0.205801
2.42769,0.71632,-0.255276
2.44051,0.437155,-0.26987
2.3911,0.610435,-0.316438
2.38512,0.702403,-0.343424
2.39441,0.42713,-0.355125
2.37092,0.512887,-0.377782
2.35655,0.600605,-0.402726
2.32606,0.684833,-0.426506
2.34553,0.415454,-0.438132
2.32336,0.501284,-0.460372
2.31894,0.589856,-0.487817
2.25859,0.573288,-0.566149
2.26358,0.397027,-0.60329
2.25257,0.482761,-0.628802
2.22209,0.564025,-0.650284
2.62135,0.557272,0.0756999
2.58705,0.450574,0.00348326
2.54417,0.636495,-0.0467847
2.49465,0.622763,-0.139747
2.48353,0.430221,-0.180938
2.4644,0.519861,-0.205476
2.42248,0.698653,-0.254273
2.44119,0.421834,-0.269653
2.42945,0.510983,-0.294407
2.39288,0.595273,-0.316184
2.39406,0.411926,-0.354691
2.36822,0.497112,-0.376859
2.35061,0.583756,-0.401092
2.33022,0.670548,-0.426506
2.34707,0.400889,-0.437951
2.32639,0.487018,-0.460372
2.313,0.573259,-0.485819
2.26395,0.559886,-0.566621
2.27169,0.384098,-0.604813
2.25172,0.468145,-0.627749
2.22551,0.55038,-0.650284
2.67281,0.552212,0.177067
2.58484,0.433864,0.00347663
2.56818,0.528071,-0.0215997
2.54026,0.618978,-0.046642
2.49648,0.606973,-0.139638
2.48514,0.41481,-0.180866
2.46168,0.503531,-0.204988
2.42672,0.683776,-0.254273
2.44667,0.407337,-0.269978
2.42767,0.495074,-0.293818
2.38974,0.578945,-0.315294
2.39459,0.396905,-0.354402
2.37122,0.482571,-0.376859
2.35127,0.568627,-0.400602
2.33049,0.655171,-0.425813
2.34948,0.38648,-0.437951
2.32357,0.471563,-0.459231
2.30886,0.557217,-0.484221
2.27301,0.547349,-0.568037
2.25455,0.45432,-0.627749
2.22417,0.535588,-0.64892
2.58252,0.417198,0.00346999
2.56745,0.511522,-0.0215667
2.54401,0.60338,-0.046642
2.52304,0.501621,-0.115104
2.49238,0.589803,-0.139204
2.47752,0.682223,-0.164556
2.49256,0.400345,-0.181224
2.46277,0.48803,-0.204826
2.42799,0.668081,-0.253972
2.44127,0.391059,-0.269112
2.43067,0.480169,-0.293818
2.40194,0.566319,-0.316438
2.38236,0.654185,-0.341235
2.39405,0.381738,-0.353969
2.36832,0.466866,-0.375935
2.35184,0.553511,-0.400112
2.33447,0.640859,-0.425813
2.3489,0.371595,-0.437409
2.32931,0.457865,-0.459802
2.30651,0.541695,-0.483023
2.27065,0.532061,-0.566621
2.27337,0.355744,-0.604052
2.25161,0.439369,-0.626169
2.22835,0.52215,-0.649193
2.67449,0.518421,0.176744
2.58404,0.401191,0.00346867
2.57152,0.495948,-0.021575
2.54669,0.587534,-0.0466241
2.52509,0.485942,-0.115059
2.49985,0.575395,-0.139421
2.47492,0.665195,-0.164109
2.49004,0.384282,-0.180866
2.46474,0.472721,-0.204744
2.4282,0.652139,-0.25357
2.44756,0.376677,-0.269545
2.43064,0.464686,-0.293465
2.4044,0.551349,-0.316311
2.38442,0.639042,-0.340961
2.39928,0.36749,-0.354402
2.37017,0.45214,-0.375781
2.33931,0.626778,-0.425986
2.34627,0.356437,-0.436504
2.33207,0.443564,-0.459802
2.30979,0.527533,-0.483023
2.27671,0.518767,-0.567329
2.27838,0.342219,-0.604813
2.259,0.42644,-0.627486
2.22589,0.507185,-0.647556
2.75974,0.414837,0.310862
2.67272,0.501082,0.17642
2.5825,0.384738,0.00346336
2.57059,0.479427,-0.021542
2.54537,0.570803,-0.046535
2.52508,0.469891,-0.114925
2.49651,0.55852,-0.139041
2.47992,0.65025,-0.164173
2.49531,0.369435,-0.181081
2.46857,0.457771,-0.204826
2.43215,0.637227,-0.25357
2.44589,0.361071,-0.269112
2.43052,0.449222,-0.293111
2.4029,0.535506,-0.315675
2.38829,0.624399,-0.340961
2.3966,0.352042,-0.35368
2.37582,0.438126,-0.376243
2.34692,0.613408,-0.426679
2.35231,0.342601,-0.437228
2.33185,0.428714,-0.459231
2.3082,0.512289,-0.482024
2.27416,0.503527,-0.565912
2.27852,0.327957,-0.604306
2.25494,0.411359,-0.625642
2.75534,0.396904,0.310087
2.70362,0.388779,0.203508
2.67378,0.484317,0.176291
2.58382,0.368744,0.00346203
2.56757,0.462581,-0.0214926
2.54589,0.554536,-0.0464814
2.55168,0.363248,-0.0908155
2.50575,0.544463,-0.139367
2.47806,0.633538,-0.163789
2.50049,0.354537,-0.181296
2.46447,0.441385,-0.204256
2.42445,0.619337,-0.252366
2.45298,0.346752,-0.269653
2.43225,0.434126,-0.292994
2.39935,0.519284,-0.314785
2.38536,0.60802,-0.340003
2.39675,0.337055,-0.353391
2.37943,0.423713,-0.376397
2.35295,0.508253,-0.398641
2.34778,0.598267,-0.42616
2.35339,0.328025,-0.437047
2.30938,0.497703,-0.481624
2.28931,0.583112,-0.506067
2.30476,0.407304,-0.544602
2.26771,0.487521,-0.563552
2.26217,0.398352,-0.626959
2.22348,0.478012,-0.6451
2.75871,0.380125,0.310198
2.70497,0.372046,0.203433
2.67572,0.46773,0.176226
2.65462,0.563988,0.149734
2.64929,0.363305,0.101326
2.62925,0.458521,0.0753893
2.58437,0.646007,0.0241774
2.58207,0.352342,0.00345673
2.56544,0.445962,-0.0214514
2.54436,0.53787,-0.0463923
2.53066,0.438869,-0.114925
2.50318,0.527842,-0.139041
2.47706,0.617115,-0.16347
2.50262,0.339188,-0.181296
2.46517,0.425916,-0.204094
2.42724,0.604209,-0.252266
2.45309,0.331428,-0.269437
2.43291,0.418856,-0.292758
2.38808,0.593134,-0.339866
2.39583,0.321947,-0.352958
2.38102,0.408938,-0.376243
2.35602,0.493806,-0.398641
2.34185,0.581476,-0.424427
2.35341,0.313319,-0.436685
2.27732,0.474986,-0.565204
2.28142,0.299845,-0.604052
2.25981,0.383657,-0.625642
2.22637,0.46436,-0.6451
2.75804,0.362802,0.309865
2.70918,0.355702,0.203582
2.67558,0.450806,0.176032
2.65901,0.547891,0.149789
2.65048,0.346912,0.101288
2.63005,0.442048,0.0753328
2.56122,0.429056,-0.0213937
2.54761,0.522248,-0.0463923
2.53807,0.617114,-0.0716828
2.52739,0.422345,-0.114657
2.49854,0.510872,-0.138607
2.48274,0.602375,-0.163598
2.49872,0.323058,-0.180866
2.4697,0.411109,-0.204256
2.45705,0.316624,-0.269653
2.43739,0.404245,-0.292994
2.38975,0.578004,-0.339593
2.39875,0.307366,-0.353102
2.38153,0.393998,-0.375935
2.35707,0.478947,-0.398315
2.34154,0.56617,-0.423734
2.35529,0.298873,-0.436685
2.30766,0.378675,-0.544149
2.27828,0.460619,-0.564732
2.25832,0.369161,-0.624589
2.22823,0.4505,-0.644827
2.76317,0.346243,0.310198
2.72412,0.44269,0.2798
2.68224,0.43502,0.176291
2.65255,0.330643,0.101288
2.58521,0.320507,0.0034554
2.56183,0.413014,-0.0213772
2.54488,0.505438,-0.0462852
2.53695,0.600378,-0.0715456
2.52599,0.406195,-0.114478
2.49869,0.49495,-0.138444
2.48833,0.587588,-0.163725
2.49768,0.307355,-0.180652
2.46922,0.395475,-0.204013
2.42479,0.572092,-0.251262
2.45697,0.3013,-0.269437
2.43492,0.3885,-0.292405
2.40656,0.474648,-0.31453
2.38457,0.561287,-0.338361
2.39764,0.292283,-0.352669
2.37805,0.378446,-0.375012
2.34401,0.551567,-0.423561
2.36001,0.284769,-0.437228
2.30032,0.36299,-0.541883
2.28108,0.271369,-0.603036
2.2634,0.355747,-0.625379
2.76524,0.329282,0.310198
2.73268,0.426888,0.280406
2.70541,0.321488,0.202987
2.67796,0.417477,0.175837
2.66357,0.51484,0.149678
2.64253,0.610695,0.123823
2.65354,0.314243,0.10125
2.61341,0.503866,0.0497565
2.5901,0.304989,0.00345938
2.54401,0.489058,-0.0462139
2.53766,0.584127,-0.0714633
2.49482,0.478293,-0.138064
2.48702,0.571192,-0.163406
2.50844,0.293065,-0.181296
2.4716,0.380317,-0.204013
2.42631,0.556758,-0.251062
2.46174,0.286564,-0.269761
2.43726,0.373552,-0.292405
2.40455,0.458943,-0.313895
2.38991,0.547087,-0.338635
2.39939,0.277566,-0.352669
2.35987,0.449432,-0.397825
2.34159,0.535855,-0.422522
2.36659,0.270842,-0.438132
2.30636,0.349452,-0.542789
2.27899,0.431722,-0.563552
2.27501,0.256501,-0.601005
2.26363,0.341564,-0.624852
2.2317,0.422764,-0.644281
2.76227,0.311752,0.309644
2.73722,0.410408,0.280607
2.7113,0.305328,0.203285
2.67751,0.400595,0.175643
2.66472,0.49812,0.149568
2.65343,0.297733,0.101174
2.63675,0.393415,0.0753045
2.60072,0.484889,0.0494574
2.59491,0.289423,0.00346336
2.5412,0.568545,-0.0714633
2.48659,0.555052,-0.16315
2.51019,0.277668,-0.181296
2.47586,0.365435,-0.204175
2.42871,0.541644,-0.250961
2.45653,0.270691,-0.269004
2.44049,0.358735,-0.292523
2.39322,0.532413,-0.338635
2.40301,0.263053,-0.352958
2.36743,0.435837,-0.398641
2.34291,0.52105,-0.422175
2.36723,0.25621,-0.437951
2.31135,0.335714,-0.543469
2.27682,0.416855,-0.562371
2.27077,0.241922,-0.599481
2.2352,0.409236,-0.644554
2.76314,0.294691,0.309533
2.73673,0.39318,0.280305
2.68387,0.384725,0.175902
2.65987,0.480341,0.149128
2.64925,0.280814,0.100947
2.63515,0.376663,0.0751916
2.60955,0.469985,0.0495696
2.59862,0.273705,0.00346601
2.569,0.365789,-0.0213772
2.53106,0.35935,-0.114388
2.47824,0.537247,-0.162383
2.50887,0.26195,-0.181081
2.47411,0.349679,-0.20385
2.43004,0.52631,-0.250761
2.45815,0.255613,-0.269004
2.44461,0.34403,-0.292758
2.39257,0.516881,-0.338088
2.40458,0.248304,-0.352958
2.37298,0.421821,-0.399132
2.34125,0.505625,-0.421309
2.36485,0.241281,-0.437228
2.31842,0.410996,-0.480026
2.31047,0.321124,-0.542789
2.27607,0.22837,-0.600497
2.23956,0.395848,-0.6451
2.76787,0.278029,0.309865
2.73909,0.376381,0.280305
2.68519,0.368114,0.175837
2.66375,0.464183,0.149183
2.65689,0.265149,0.101174
2.62949,0.359404,0.0749657
2.61042,0.453622,0.0495322
2.59926,0.257657,0.00346469
2.57021,0.349884,-0.021369
2.54505,0.5367,-0.071381
2.53916,0.344619,-0.114657
2.48833,0.523468,-0.162831
2.50944,0.246453,-0.18101
2.46561,0.241106,-0.269653
2.43979,0.328097,-0.291934
2.39569,0.502191,-0.338088
2.40902,0.233832,-0.353391
2.37163,0.406586,-0.398478
2.35943,0.226109,-0.435961
2.34035,0.31248,-0.45733
2.3209,0.396763,-0.480026
2.3124,0.306941,-0.542789
2.28417,0.215035,-0.602274
2.77051,0.261134,0.309976
2.74529,0.360084,0.280708
2.71646,0.25537,0.203285
2.69036,0.35202,0.176032
2.6695,0.448326,0.149348
2.66145,0.249121,0.101288
2.63066,0.343134,0.0749375
2.60921,0.436936,0.0494574
2.59979,0.24161,0.00346336
2.5723,0.334107,-0.021369
2.54437,0.520272,-0.0712713
2.50383,0.416595,-0.137956
2.50792,0.230777,-0.180795
2.48612,0.32031,-0.2045
2.46407,0.225701,-0.269329
2.44471,0.3135,-0.292287
2.3929,0.486298,-0.337267
2.41336,0.219315,-0.353824
2.36727,0.390901,-0.397334
2.36175,0.211716,-0.436142
2.27931,0.374089,-0.561191
2.28448,0.200931,-0.60202
2.23571,0.366933,-0.642644
2.76117,0.243171,0.308758
2.74646,0.343109,0.280607
2.70511,0.438662,0.251956
2.69544,0.335876,0.176226
2.66628,0.430981,0.149017
2.65894,0.232438,0.101136
2.63966,0.327848,0.0751351
2.61381,0.421236,0.0494948
2.59824,0.225395,0.00345938
2.57629,0.318563,-0.0213855
2.54991,0.409523,-0.0460712
2.53771,0.502708,-0.070997
2.5313,0.311967,-0.11412
2.50338,0.40075,-0.137793
2.51128,0.215555,-0.180938
2.48804,0.30505,-0.2045
2.43346,0.480336,-0.250158
2.47036,0.211,-0.26987
2.44265,0.298013,-0.291816
2.39584,0.471606,-0.337267
2.4117,0.204252,-0.353391
2.36865,0.376213,-0.397171
2.36301,0.19722,-0.436142
2.34206,0.2835,-0.45695
2.32366,0.367945,-0.479627
2.28856,0.187146,-0.602782
2.27304,0.271967,-0.624852
2.24172,0.353808,-0.643735
2.76954,0.226792,0.309533
2.74061,0.325313,0.2798
2.71267,0.422822,0.252414
2.7184,0.221935,0.20321
2.6925,0.318744,0.175902
2.66789,0.41446,0.148962
2.66132,0.216199,0.101174
2.6436,0.31188,0.0751916
2.6124,0.404578,0.04942
2.59547,0.498417,0.0239868
2.60456,0.209849,0.00346601
2.5772,0.302632,-0.0213772
2.5504,0.393564,-0.0460355
2.5378,0.486563,-0.0709146
2.5411,0.297359,-0.114478
2.48578,0.475329,-0.162064
2.51156,0.200063,-0.180866
2.48096,0.28874,-0.203769
2.43832,0.465769,-0.250359
2.46963,0.195681,-0.269653
2.44936,0.28359,-0.292405
2.41491,0.369377,-0.313259
2.39675,0.456526,-0.336993
2.4139,0.189527,-0.353535
2.37188,0.361821,-0.397334
2.34812,0.447094,-0.420443
2.36515,0.182793,-0.436323
2.34375,0.269125,-0.45695
2.28469,0.346235,-0.561427
2.28484,0.172736,-0.601513
2.26892,0.257362,-0.623272
2.2448,0.34019,-0.644008
2.79632,0.315972,0.389891
2.76989,0.209719,0.309423
2.74355,0.308602,0.279901
2.71672,0.205025,0.202987
2.69143,0.301883,0.175708
2.6596,0.199641,0.101061
2.63951,0.294987,0.0750222
2.61384,0.388394,0.0494013
2.59258,0.481387,0.0239323
2.6038,0.193716,0.00346336
2.57901,0.286813,-0.0213772
2.53878,0.470618,-0.0708598
2.48472,0.459342,-0.161808
2.50677,0.18421,-0.180437
2.48367,0.273621,-0.20385
2.43722,0.450076,-0.249958
2.44908,0.26834,-0.292169
2.41223,0.353833,-0.312623
2.39658,0.441273,-0.336583
2.41699,0.174855,-0.353824
2.39081,0.260983,-0.37455
2.37308,0.347118,-0.397171
2.35469,0.433391,-0.421136
2.36819,0.168417,-0.436685
2.34731,0.254951,-0.45733
2.31633,0.249786,-0.542109
2.29261,0.159182,-0.60329
2.26949,0.243333,-0.623009
2.24208,0.325719,-0.642644
2.74341,0.291552,0.279699
2.70976,0.388371,0.251681
2.71694,0.188283,0.202913
2.69522,0.285574,0.175837
2.65679,0.183044,0.100909
2.63729,0.278366,0.0749092
2.61914,0.372771,0.0494574
2.59844,0.465999,0.0239596
2.60195,0.177531,0.00345938
2.58371,0.271296,-0.021402
2.54457,0.45556,-0.0709421
2.50786,0.168825,-0.180437
2.48035,0.257861,-0.203443
2.43993,0.435113,-0.249958
2.47482,0.16556,-0.269978
2.45266,0.253511,-0.292405
2.41828,0.339577,-0.313131
2.40314,0.427254,-0.33713
2.42098,0.160218,-0.354258
2.39433,0.246511,-0.374858
2.37419,0.332414,-0.397008
2.35925,0.419279,-0.421482
2.36918,0.153883,-0.436685
2.32266,0.236061,-0.543242
2.29162,0.144989,-0.602782
2.26807,0.229112,-0.622219
2.25071,0.312883,-0.644554
2.73525,0.273722,0.278691
2.71604,0.372278,0.252048
2.70993,0.47192,0.226198
2.71804,0.171609,0.202913
2.69692,0.269031,0.175837
2.65986,0.166863,0.100985
2.64094,0.262376,0.0749657
2.61643,0.356019,0.049364
2.59533,0.449024,0.0239051
2.599,0.161315,0.00345408
2.58532,0.255438,-0.021402
2.54535,0.439598,-0.0708872
2.51543,0.339594,-0.137956
2.48624,0.428138,-0.161553
2.52079,0.154164,-0.181296
2.48585,0.243025,-0.203769
2.44354,0.420302,-0.250058
2.47579,0.150371,-0.269978
2.45417,0.238457,-0.292405
2.40181,0.41183,-0.336583
2.42389,0.145478,-0.354547
2.39383,0.231625,-0.37455
2.37716,0.317971,-0.397171
2.35983,0.404463,-0.421136
2.37205,0.139458,-0.437047
2.32907,0.310421,-0.479028
2.31437,0.220879,-0.540976
2.29343,0.130981,-0.603036
2.26559,0.214827,-0.621166
2.77402,0.364573,0.360451
2.71433,0.355089,0.251681
2.70688,0.454294,0.225707
2.72004,0.154985,0.202987
2.69454,0.252106,0.175578
2.66482,0.150766,0.101136
2.6425,0.246167,0.0749657
2.61856,0.339958,0.049364
2.59705,0.432926,0.023896
2.60193,0.145476,0.00345673
2.58286,0.239201,-0.021369
2.54109,0.422823,-0.0706952
2.5145,0.323771,-0.137793
2.49027,0.22804,-0.204013
2.46648,0.316712,-0.226266
2.47666,0.135177,-0.269978
2.42276,0.130496,-0.354258
2.39717,0.217111,-0.374858
2.37614,0.303004,-0.396681
2.3613,0.389815,-0.420963
2.37777,0.12516,-0.437951
2.31666,0.206761,-0.541203
2.29709,0.117054,-0.603798
2.26494,0.200751,-0.620639
2.77621,0.347545,0.360451
2.71645,0.338428,0.251681
2.70961,0.437676,0.225707
2.72193,0.138343,0.203062
2.69803,0.235741,0.175708
2.68034,0.332551,0.149017
2.66769,0.134512,0.101212
2.64695,0.230208,0.0750504
2.6206,0.323885,0.049364
2.59374,0.416033,0.0238416
2.60777,0.129757,0.00346336
2.54265,0.407065,-0.0706678
2.5195,0.123073,-0.181081
2.49361,0.212926,-0.204175
2.47645,0.11993,-0.26987
2.4579,0.208407,-0.292523
2.40277,0.381704,-0.336035
2.42352,0.115628,-0.354258
2.39354,0.201982,-0.374089
2.36365,0.375319,-0.420963
2.38046,0.110659,-0.438313
2.29583,0.10287,-0.60329
2.27767,0.187801,-0.623799
2.77829,0.330504,0.360451
2.74081,0.22341,0.278792
2.72441,0.322456,0.252231
2.72771,0.121861,0.203433
2.69743,0.219021,0.175578
2.67836,0.315631,0.148797
2.67047,0.11823,0.101288
2.64731,0.213881,0.0750222
2.62651,0.308265,0.0494387
2.60217,0.401024,0.023896
2.61251,0.113928,0.00346867
2.58759,0.207647,-0.0213855
2.55301,0.392672,-0.0708872
2.51432,0.292428,-0.137576
2.49271,0.382151,-0.161489
2.49388,0.197543,-0.204094
2.44693,0.374651,-0.249657
2.47814,0.104775,-0.269978
2.46012,0.1934,-0.29264
2.42194,0.279672,-0.312623
2.40899,0.367551,-0.336583
2.42418,0.100756,-0.354258
2.3967,0.187446,-0.374397
2.37673,0.273484,-0.396191
2.36104,0.360067,-0.420096
2.38207,0.0960903,-0.438494
2.29835,0.0888562,-0.603798
2.27974,0.173895,-0.624062
2.77435,0.312784,0.359685
2.69077,0.201868,0.175061
2.67033,0.298083,0.148246
2.67114,0.101842,0.101288
2.65057,0.197783,0.0750787
2.62438,0.291702,0.049364
2.59271,0.383295,0.0237871
2.61516,0.0979704,0.00347132
2.58782,0.191692,-0.0213772
2.54845,0.375978,-0.0706952
2.524,0.277869,-0.13801
2.52382,0.0922547,-0.181296
2.49305,0.182091,-0.203931
2.44918,0.35963,-0.249657
2.47973,0.0896029,-0.270086
2.4246,0.264913,-0.31275
2.4112,0.352763,-0.336583
2.42574,0.0859143,-0.354402
2.39978,0.172879,-0.374704
2.36028,0.345145,-0.419577
2.38065,0.0814052,-0.438132
2.3259,0.164496,-0.542563
2.30079,0.0748149,-0.604306
2.2798,0.159837,-0.623799
2.77819,0.295965,0.35994
2.76104,0.395898,0.332305
2.76419,0.191201,0.28091
2.72024,0.288159,0.251498
2.71721,0.387727,0.225707
2.67111,0.281588,0.148191
2.66972,0.085386,0.101212
2.65273,0.181584,0.0751069
2.62612,0.275593,0.049364
2.59601,0.367519,0.0237962
2.61572,0.0819223,0.00347132
2.58895,0.17581,-0.0213772
2.55367,0.360753,-0.0707775
2.57716,0.0798144,-0.0908507
2.55462,0.172449,-0.114567
2.52169,0.261965,-0.137793
2.49524,0.351255,-0.161361
2.53032,0.076949,-0.181726
2.49512,0.166857,-0.204013
2.4543,0.345011,-0.249958
2.48023,0.0743859,-0.270086
2.42717,0.250133,-0.312877
2.41528,0.338236,-0.336856
2.42524,0.0709996,-0.354258
2.39981,0.158086,-0.37455
2.36235,0.330656,-0.419577
2.38504,0.0669065,-0.438856
2.35414,0.153798,-0.45695
2.32978,0.15041,-0.543242
2.29216,0.233026,-0.559774
2.2817,0.145906,-0.624062
2.7644,0.379084,0.332423
2.67875,0.265784,0.148522
2.67319,0.0690807,0.101326
2.6518,0.165179,0.0750504
2.63174,0.259867,0.0494387
2.59623,0.351315,0.023778
2.62117,0.0659968,0.00347795
2.58599,0.159675,-0.0213443
2.55485,0.344944,-0.0707501
2.55763,0.156893,-0.114657
2.51729,0.245904,-0.137467
2.50229,0.336603,-0.16168
2.49709,0.151605,-0.204094
2.45439,0.32968,-0.249757
2.48163,0.0591899,-0.270194
2.42668,0.235044,-0.312623
2.41436,0.323016,-0.336446
2.43453,0.0563233,-0.355558
2.38137,0.22969,-0.396191
2.36434,0.316155,-0.419577
2.38835,0.0523356,-0.439398
2.28159,0.131848,-0.623799
2.7826,0.261943,0.360068
2.77159,0.362759,0.333014
2.71979,0.354096,0.225543
2.67437,0.248788,0.148191
2.66757,0.052559,0.101098
2.65576,0.149073,0.0751351
2.63428,0.243807,0.0494574
2.60131,0.335763,0.0238053
2.62052,0.0498934,0.00347663
2.58892,0.143916,-0.0213608
2.56088,0.329772,-0.0708598
2.58095,0.0482387,-0.0909564
2.55256,0.140867,-0.114388
2.51775,0.230363,-0.137413
2.50827,0.32175,-0.161936
2.52808,0.0458381,-0.181511
2.49698,0.136226,-0.204013
2.45637,0.314614,-0.249757
2.47797,0.0438913,-0.269761
2.43598,0.220866,-0.31364
2.41925,0.308572,-0.336856
2.43977,0.0414683,-0.356281
2.38666,0.215429,-0.396844
2.36721,0.301766,-0.41975
2.3906,0.037711,-0.43976
2.35781,0.125001,-0.45733
2.28525,0.117995,-0.624589
2.76588,0.344763,0.332068
2.72092,0.337278,0.225461
2.67883,0.232633,0.148356
2.66498,0.328927,0.122592
2.66384,0.0361359,0.100947
2.65862,0.132874,0.0751916
2.63473,0.227552,0.0494387
2.60729,0.320283,0.0238416
2.61978,0.0338003,0.0034753
2.59075,0.128077,-0.021369
2.5579,0.313444,-0.0707226
2.58119,0.0324013,-0.0909564
2.55537,0.1253,-0.114478
2.50722,0.305991,-0.161744
2.5323,0.0303731,-0.181797
2.50374,0.121191,-0.2045
2.45727,0.299416,-0.249657
2.4772,0.0286744,-0.269653
2.44124,0.206249,-0.314149
2.41519,0.293006,-0.336035
2.44097,0.0265081,-0.356425
2.40428,0.11398,-0.374858
2.38695,0.200698,-0.396681
2.3651,0.286761,-0.419057
2.39078,0.0230419,-0.43976
2.35951,0.110578,-0.45752
2.28689,0.104015,-0.624852
2.68021,0.216192,0.148356
2.661,0.311871,0.122318
2.67001,0.0198347,0.101174
2.66038,0.116603,0.0752198
2.63109,0.210982,0.0493453
2.60921,0.304279,0.0238416
2.61894,0.0177183,0.00347397
2.55779,0.297512,-0.0706678
2.55609,0.109618,-0.114478
2.50905,0.290601,-0.161744
2.51041,0.106079,-0.204988
2.46301,0.28479,-0.250058
2.47833,0.0134795,-0.269761
2.43653,0.190802,-0.313386
2.41104,0.277501,-0.335214
2.4401,0.0115254,-0.356281
2.40593,0.0992661,-0.375012
2.39404,0.186508,-0.397661
2.36976,0.272582,-0.419577
2.39186,0.0083753,-0.439941
2.72188,0.303531,0.225215
2.68347,0.19989,0.148466
2.66087,0.295317,0.122227
2.66205,0.100314,0.0752481
2.62835,0.194539,0.0492705
2.60308,0.287385,0.023769
2.617,0.00164716,0.00347132
2.55956,0.281813,-0.0706678
2.55572,0.0938953,-0.114433
2.5098,0.275092,-0.16168
2.53049,-0.000703885,-0.181654
2.51102,0.0906732,-0.204988
2.46471,0.269672,-0.250058
2.48234,-0.00173029,-0.270194
2.46814,0.0876585,-0.292876
2.4337,0.175562,-0.312877
2.40975,0.262381,-0.334804
2.44111,-0.00344838,-0.356425
2.41044,0.0846404,-0.375628
2.39416,0.171744,-0.397498
2.37138,0.258036,-0.419577
2.39187,-0.00630105,-0.439941
2.36559,0.0817842,-0.458471
2.30404,0.163016,-0.561191
2.77769,0.294422,0.332778
2.72072,0.286511,0.224969
2.68764,0.183625,0.148632
2.66264,0.278985,0.122227
2.65862,0.0838523,0.0751351
2.63648,0.178882,0.0494013
2.61275,0.272237,0.0238416
2.56025,0.265999,-0.0706403
2.58235,-0.0151213,-0.0909916
2.55425,0.0781509,-0.114344
2.50548,0.259071,-0.161297
2.53443,-0.0162562,-0.18194
2.50854,0.0751747,-0.204744
2.46038,0.25393,-0.249456
2.48626,-0.0169888,-0.270627
2.47062,0.0725709,-0.293111
2.43869,0.160887,-0.313386
2.41722,0.248197,-0.335625
2.44402,-0.0184491,-0.356858
2.40993,0.06982,-0.375474
2.39615,0.157115,-0.397661
2.36998,0.243179,-0.419057
2.39277,-0.0209858,-0.440122
2.369,0.0673514,-0.459041
2.30888,0.149126,-0.562135
2.25707,0.14578,-0.641552
2.77648,0.277077,0.332423
2.71846,0.269419,0.224641
2.69843,0.069621,0.175125
2.68074,0.166635,0.148191
2.66827,0.263034,0.122409
2.65309,0.0673855,0.0749657
2.61138,0.255907,0.0238143
2.59811,0.0645825,-0.0214102
2.55885,0.249993,-0.070558
2.56367,0.0626967,-0.114746
2.52762,0.153265,-0.13763
2.51298,0.244272,-0.16168
2.50596,0.0597099,-0.2045
2.48023,0.149522,-0.226085
2.4619,0.238829,-0.249456
2.48312,-0.0322052,-0.270303
2.47101,0.0574101,-0.293111
2.4426,0.146099,-0.313767
2.42363,0.233836,-0.336309
2.44386,-0.033445,-0.356858
2.41525,0.0551444,-0.376243
2.39805,0.142468,-0.397825
2.36849,0.228349,-0.418537
2.39456,-0.0356965,-0.440484
2.36936,0.0528142,-0.459041
2.3146,0.13524,-0.563316
2.25888,0.131984,-0.641825
2.71808,0.252549,0.224477
2.67872,0.150016,0.148026
2.67083,0.246749,0.122455
2.65645,0.0511629,0.0750504
2.63648,0.146404,0.049364
2.60494,0.239148,0.0237417
2.59746,0.0486209,-0.021402
2.56233,0.234469,-0.0706129
2.56001,0.0468919,-0.114567
2.52851,0.137753,-0.13763
2.50549,0.228034,-0.161105
2.53802,-0.0474309,-0.182227
2.50827,0.0443678,-0.204663
2.4811,0.134301,-0.226085
2.46034,0.223449,-0.249155
2.48586,-0.0474977,-0.270627
2.47132,0.0422472,-0.293111
2.44345,0.131108,-0.313767
2.42897,0.219317,-0.336856
2.44361,-0.0484396,-0.356858
2.41653,0.0403402,-0.376397
2.3979,0.127699,-0.397661
2.36985,0.213812,-0.418537
2.39135,-0.0503265,-0.439941
2.37259,0.0383226,-0.459612
2.30957,0.120731,-0.561899
2.25965,0.118122,-0.641825
2.78758,0.243676,0.333369
2.71958,0.235867,0.224477
2.68159,0.133676,0.148136
2.6713,0.230271,0.122409
2.65371,0.034823,0.0749657
2.60735,0.223245,0.0237508
2.59871,0.0326949,-0.0214102
2.56372,0.218743,-0.0706129
2.55925,0.031171,-0.114523
2.50983,0.212909,-0.161297
2.50949,0.028988,-0.204744
2.46662,0.208768,-0.249657
2.4885,-0.062825,-0.270952
2.47153,0.0270826,-0.293111
2.44124,0.115972,-0.313386
2.43027,0.204409,-0.336856
2.44326,-0.0634323,-0.356858
2.41377,0.0254806,-0.375935
2.39272,0.112705,-0.396681
2.37995,0.200009,-0.420096
2.38804,-0.0649184,-0.439398
2.37474,0.0237836,-0.459992
2.34712,0.109448,-0.479028
2.31512,0.106781,-0.563079
2.31651,-0.0668582,-0.608368
2.7722,0.225201,0.331358
2.72395,0.219415,0.224723
2.67067,0.213716,0.122318
2.65388,0.0185394,0.0749657
2.60867,0.207243,0.0237508
2.62081,-0.0787797,0.00347795
2.60386,0.0167811,-0.0214514
2.56501,0.203008,-0.0706129
2.56039,0.0154732,-0.114567
2.50963,0.0135895,-0.204744
2.47381,0.194096,-0.250259
2.48807,-0.078093,-0.270952
2.47364,0.0119267,-0.293347
2.43893,0.100868,-0.313004
2.43345,0.189647,-0.33713
2.43986,-0.0783275,-0.356425
2.41585,0.0106783,-0.376243
2.39928,0.0982632,-0.397661
2.38113,0.185402,-0.420096
2.39153,-0.0797009,-0.440122
2.37779,0.00922348,-0.460562
2.3497,0.0951234,-0.479427
2.32058,0.0927681,-0.56426
2.31316,-0.0809693,-0.607606
2.26958,0.0907292,-0.644281
2.72227,0.202476,0.224477
2.68303,0.100759,0.148136
2.67791,0.197767,0.122592
2.65494,0.00225606,0.074994
2.63073,0.0975537,0.0492144
2.6089,0.191159,0.0237417
2.62728,-0.0951125,0.00348724
2.5672,0.187338,-0.0706403
2.56344,-0.000237683,-0.114701
2.53062,0.0911877,-0.13763
2.50926,0.181878,-0.161105
2.50966,-0.00180956,-0.204744
2.46999,0.178554,-0.249757
2.48457,-0.0932462,-0.270627
2.47764,-0.00325673,-0.293818
2.44248,0.0860054,-0.313386
2.43259,0.17457,-0.336856
2.43637,-0.0931832,-0.355992
2.41686,-0.00414704,-0.376397
2.40181,0.0836083,-0.397988
2.38222,0.170788,-0.420096
2.39591,-0.0945676,-0.441026
2.37976,-0.00537097,-0.460943
2.35514,0.0808723,-0.480426
2.31819,0.078429,-0.563552
2.30875,-0.095002,-0.606591
2.27971,0.0771269,-0.64701
2.72644,0.185972,0.224723
2.68759,0.0844197,0.148356
2.67907,0.181332,0.122592
2.63128,0.0814099,0.0492144
2.60803,0.175014,0.0237236
2.5713,0.171783,-0.0707226
2.56738,-0.0159915,-0.11488
2.51531,0.166808,-0.161425
2.50861,-0.0172017,-0.204663
2.47303,0.163527,-0.249958
2.48891,-0.108706,-0.271168
2.44692,0.0711323,-0.313895
2.43658,0.159835,-0.337267
2.43871,-0.108262,-0.356425
2.41976,-0.0189998,-0.376859
2.40524,0.0689543,-0.398478
2.38028,0.155975,-0.419577
2.39234,-0.109132,-0.440484
2.37576,-0.0199399,-0.460182
2.35951,0.0665304,-0.481225
2.31572,0.0641227,-0.562843
2.2686,0.0628179,-0.643735
2.72753,0.169239,0.224723
2.68506,0.0678517,0.148191
2.61504,0.159373,0.023778
2.57031,0.155881,-0.0706678
2.57523,-0.0318432,-0.115238
2.53554,0.060221,-0.137847
2.51728,0.151431,-0.161489
2.51443,-0.0326716,-0.205151
2.47498,0.148409,-0.250058
2.48621,-0.123877,-0.270952
2.45128,0.0562079,-0.314403
2.43554,0.144764,-0.336993
2.44196,-0.123424,-0.357003
2.42058,-0.0338606,-0.377013
2.4066,0.0542169,-0.398641
2.38414,0.141542,-0.420096
2.39163,-0.123809,-0.440484
2.37265,-0.0344741,-0.459612
2.32481,0.0501009,-0.564968
2.27183,0.048959,-0.644554
2.72553,0.152333,0.224477
2.68209,0.148497,0.122637
2.61397,0.143215,0.0237599
2.57122,0.140107,-0.0706678
2.51518,0.135821,-0.161297
2.53954,-0.141093,-0.182585
2.51518,-0.0481183,-0.205232
2.47485,0.133167,-0.249958
2.49434,-0.13963,-0.271926
2.48014,-0.0489201,-0.294171
2.44761,0.0410994,-0.313895
2.44133,0.130081,-0.337677
2.44214,-0.138461,-0.357147
2.42132,-0.0487323,-0.377166
2.40886,0.0394816,-0.398968
2.38889,0.12712,-0.420789
2.3918,-0.138539,-0.440665
2.37337,-0.049052,-0.459802
2.35525,0.0374926,-0.480226
2.32605,0.0358501,-0.565204
2.27016,0.0349888,-0.644008
2.73139,0.135854,0.224887
2.64333,0.0331006,0.04942
2.6138,0.127125,0.0237508
2.56903,0.124183,-0.0705855
2.59454,-0.158669,-0.0915902
2.54161,-0.156857,-0.1828
2.52082,-0.0637013,-0.20572
2.47959,0.118168,-0.250359
2.49344,-0.154932,-0.271926
2.47979,-0.064137,-0.294171
2.43911,0.114959,-0.337267
2.43631,-0.153133,-0.356425
2.42295,-0.0636402,-0.377474
2.40117,0.0246194,-0.397661
2.3916,0.112552,-0.421136
2.39189,-0.153275,-0.440845
2.37303,-0.0636138,-0.459802
2.35837,0.0230691,-0.480825
2.32622,0.0215771,-0.565204
2.30185,-0.0648819,-0.628539
2.28284,0.0211747,-0.647556
2.67773,0.115314,0.122364
2.64348,0.0168808,0.04942
2.62552,0.111551,0.0238506
2.57174,0.108502,-0.0706403
2.59053,-0.174384,-0.0914846
2.5742,-0.0792393,-0.115238
2.51965,0.10507,-0.161489
2.53762,-0.172246,-0.182585
2.51141,-0.078886,-0.204988
2.47828,0.102869,-0.250158
2.49641,-0.1705,-0.272358
2.47637,-0.0792562,-0.293818
2.43977,0.0999906,-0.337267
2.4452,-0.16876,-0.35787
2.40226,0.00988968,-0.397825
2.3952,0.0979963,-0.421656
2.37946,-0.0783996,-0.461133
2.36729,0.00863012,-0.482623
2.32534,0.00730022,-0.564968
2.3043,-0.0791038,-0.629329
2.26946,0.00712478,-0.643735
2.67639,0.0988081,0.122273
2.62716,0.0954755,0.0238597
2.57835,0.0929359,-0.0708049
2.59638,-0.190789,-0.0917311
2.52623,0.0898208,-0.161872
2.53651,-0.187814,-0.182585
2.51586,-0.0944812,-0.205395
2.47887,0.0876605,-0.250158
2.49729,-0.185962,-0.272575
2.48179,-0.0946766,-0.294525
2.44994,-0.00396327,-0.314149
2.44133,0.0850531,-0.337403
2.44313,-0.183686,-0.357725
2.40129,-0.00484852,-0.397661
2.39674,0.083332,-0.421829
2.3673,-0.00589545,-0.482623
2.32048,-0.00695337,-0.563788
2.29317,-0.0928121,-0.626432
2.27234,-0.00680913,-0.644554
2.68094,0.0825072,0.122455
2.64849,-0.0155895,0.0495135
2.6197,0.0791123,0.0237871
2.58087,0.0771734,-0.0708598
2.60214,-0.207272,-0.0919776
2.54219,-0.0176261,-0.138173
2.51975,0.0741131,-0.161425
2.54227,-0.203932,-0.183086
2.52718,-0.110439,-0.206371
2.48135,0.0725069,-0.250359
2.49908,-0.201521,-0.2729
2.48116,-0.109903,-0.294525
2.43883,0.0699865,-0.336993
2.44491,-0.198914,-0.358159
2.42334,-0.108316,-0.377782
2.40418,-0.0196066,-0.398151
2.39819,0.0686525,-0.422002
2.3633,-0.020387,-0.481824
2.31554,-0.0211471,-0.562607
2.68539,0.0661541,0.122637
2.64935,-0.0318521,0.0495322
2.62913,0.0632531,0.0238688
2.57031,0.0610748,-0.070558
2.59285,-0.222551,-0.0916959
2.52814,0.0588366,-0.161936
2.5519,-0.220472,-0.183874
2.52248,-0.125745,-0.206045
2.47876,0.0572114,-0.250058
2.49879,-0.216937,-0.273008
2.48342,-0.125275,-0.294878
2.45665,-0.0341239,-0.315039
2.4412,0.0550655,-0.337267
2.44562,-0.214085,-0.358448
2.42362,-0.123234,-0.377936
2.405,-0.0343721,-0.398315
2.39561,0.0538698,-0.421482
2.36019,-0.0348441,-0.481225
2.31925,-0.0354139,-0.563552
2.67476,0.0494724,0.122136
2.62847,0.0471019,0.0238597
2.57663,0.0454082,-0.0707226
2.59641,-0.238914,-0.0918719
2.58146,-0.142942,-0.115685
2.52546,0.0432718,-0.161744
2.5505,-0.236126,-0.183874
2.47807,0.041984,-0.249958
2.49345,-0.231897,-0.272575
2.47963,-0.140342,-0.294525
2.46532,-0.0493757,-0.316184
2.44644,0.0401668,-0.337951
2.45017,-0.229641,-0.359315
2.42479,-0.138215,-0.378244
2.39195,0.0391052,-0.420789
2.36581,-0.0494482,-0.482424
2.35401,-0.137272,-0.548682
2.31899,-0.0496439,-0.563552
2.29781,0.0373656,-0.583349
2.64676,-0.0643127,0.0494948
2.63271,0.0310202,0.023896
2.57486,0.0295745,-0.0706678
2.58694,-0.254059,-0.0915902
2.58053,-0.158779,-0.115685
2.55042,-0.0646442,-0.138661
2.52368,0.0277532,-0.161616
2.47629,0.0267566,-0.249757
2.49693,-0.247683,-0.273116
2.48764,-0.156114,-0.295584
2.461,-0.0643979,-0.315675
2.44763,0.0251652,-0.338088
2.44674,-0.244474,-0.359026
2.42488,-0.153153,-0.378397
2.40932,-0.0640135,-0.399132
2.3951,0.0244579,-0.421309
2.57552,-0.17434,-0.115506
2.5248,0.0122725,-0.16168
2.55336,-0.268031,-0.184303
2.50129,-0.263625,-0.273765
2.48664,-0.171375,-0.295584
2.45071,0.0101586,-0.338498
2.40889,-0.0787956,-0.399132
2.39718,0.00976938,-0.421656
2.36502,-0.0784766,-0.482424
2.34826,-0.165874,-0.547775
2.5754,-0.190213,-0.115551
2.55641,-0.0961996,-0.139041
2.55167,-0.283694,-0.184303
2.50259,-0.279298,-0.27409
2.48554,-0.18663,-0.295584
2.44479,-0.004867,-0.337677
2.44651,-0.274812,-0.359459
2.42774,-0.18327,-0.379167
2.41329,-0.0937663,-0.399948
2.40113,-0.00494773,-0.422349
2.34773,-0.00508355,-0.502925
2.33128,-0.092862,-0.566857
2.57618,-0.206171,-0.11564
2.54691,-0.298996,-0.184088
2.48035,-0.0188587,-0.250158
2.50478,-0.295114,-0.274523
2.4794,-0.201475,-0.294996
2.44768,-0.019892,-0.338088
2.44871,-0.290284,-0.360037
2.40007,-0.0196726,-0.422175
2.32775,-0.107031,-0.566149
2.58581,-0.0337682,-0.0709695
2.57188,-0.221717,-0.115506
2.53657,-0.0343651,-0.162447
2.54503,-0.314618,-0.184088
2.48516,-0.0341458,-0.25066
2.50292,-0.310477,-0.274523
2.47713,-0.216598,-0.294878
2.45571,-0.124624,-0.315294
2.44652,-0.0348962,-0.337951
2.41885,-0.123727,-0.401092
2.39991,-0.0343988,-0.422175
2.36709,-0.122198,-0.483223
2.3222,-0.121059,-0.564968
2.52567,-0.234955,-0.20694
2.48291,-0.0493542,-0.250459
2.50787,-0.326728,-0.27528
2.4886,-0.232997,-0.296409
2.44527,-0.0498869,-0.337814
2.41805,-0.138566,-0.401092
2.4026,-0.0491842,-0.422695
2.36825,-0.136833,-0.483622
2.32529,-0.135531,-0.565912
2.5832,-0.0654469,-0.0709146
2.53596,-0.0654901,-0.162447
2.50385,-0.341841,-0.275064
2.49207,-0.248755,-0.296998
2.44789,-0.0649687,-0.338224
2.41518,-0.153276,-0.400765
2.40226,-0.0639254,-0.422695
2.37324,-0.151736,-0.484821
2.58175,-0.0812644,-0.0708872
2.5375,-0.081113,-0.162575
2.52755,-0.266454,-0.207346
2.48809,-0.0800115,-0.251062
2.50662,-0.3579,-0.275605
2.48951,-0.263937,-0.29688
2.44349,-0.079858,-0.337677
2.41616,-0.168229,-0.401092
2.40477,-0.0787609,-0.423215
2.5842,-0.0972169,-0.0709695
2.53596,-0.0966433,-0.162511
2.48755,-0.0952766,-0.251062
2.50143,-0.372834,-0.27528
2.48883,-0.279318,-0.296998
2.44295,-0.0948495,-0.337677
2.42001,-0.183424,-0.401909
2.40621,-0.0935914,-0.423561
2.58855,-0.11329,-0.0711067
2.5423,-0.112511,-0.162958
2.4889,-0.110626,-0.251262
2.49496,-0.295518,-0.29794
2.40363,-0.108265,-0.423215
2.59479,-0.12952,-0.0712987
2.53957,-0.128007,-0.162831
2.49605,-0.31119,-0.298293
2.44853,-0.125175,-0.338635
2.40292,-0.123012,-0.423215
2.59395,-0.145439,-0.0712987
2.49508,-0.326628,-0.298411
2.42113,-0.228401,-0.402726
2.40703,-0.138035,-0.424081
2.54478,-0.159599,-0.163278
2.4924,-0.156795,-0.251864
2.49106,-0.341662,-0.298175
2.45373,-0.155652,-0.339593
2.40909,-0.152989,-0.424601
2.49187,-0.357363,-0.298528
2.44778,-0.170361,-0.338909
2.40614,-0.167631,-0.424254
2.54462,-0.190965,-0.163406
2.49625,-0.187817,-0.252466
2.49159,-0.37294,-0.298764
2.45361,-0.185901,-0.339866
2.40998,-0.182764,-0.42512
2.49024,-0.388375,-0.298882
2.45736,-0.201357,-0.34055
2.40979,-0.197629,-0.425294
2.4997,-0.218956,-0.253068
2.45509,-0.216344,-0.340414
2.40853,-0.212411,-0.425294
2.47436,-0.324679,-0.319999
2.45273,-0.231311,-0.340277
2.45619,-0.246852,-0.340961
2.46054,-0.262549,-0.341782
2.46577,-0.278419,-0.34274
2.46107,-0.293192,-0.342329
2.50772,-0.313033,-0.254875
2.51068,-0.329061,-0.255376
2.46121,-0.323888,-0.342876
2.51059,-0.344731,-0.255577
2.46212,-0.33939,-0.343287
2.50941,-0.36027,-0.255677
